# .PCD v0.7 - Point Cloud Data file format
VERSION 0.7
FIELDS x y z
SIZE 4 4 4
TYPE F F F
COUNT 1 1 1
WIDTH 1585
HEIGHT 1
VIEWPOINT 0 0 0 1 0 0 0
POINTS 1585
DATA ascii
7.9599686 1.546645 1.6277175
7.959969 1.5808845 1.6272719
3.6999688 1.7167258 1.6268461
1.24 1.7272357 1.6204785
1.9984014e-15 1.7622551 1.6208775
0.23999999 1.7859749 1.6239824
3.6999688 1.7899916 1.6243813
0.23999998 1.7944474 1.6204892
1.355 1.7930694 1.6215873
1.355 1.8000683 1.623953
0.23999998 1.9036832 1.6220767
1.24 1.9344445 1.626316
7.7199688 1.9524254 1.6262422
3.6999688 1.9602954 1.6288666
7.7199688 1.9719524 1.6233712
1.9984014e-15 1.9819274 1.6246369
7.9599686 2.0440123 1.6278841
0.23999999 2.0902255 1.6283975
0.23999998 2.1063578 1.6299267
3.5249686 2.1080537 1.6217735
7.9599686 2.1937046 1.6254432
0.23999999 2.2377002 1.6225835
7.7199688 2.3209608 1.6248056
1.24 2.4116449 1.6245292
3.6999688 2.4458857 1.6228178
1.24 2.4737287 1.6280589
7.7199688 2.4936798 1.6247371
0.23999998 2.5073516 1.6204631
1.24 2.5473101 1.6228009
7.9599686 2.5758388 1.621381
1.24 2.6291056 1.6203275
1.355 2.7850335 1.6278738
1.24 2.9098818 1.6263695
1.24 2.9175489 1.6255155
3.6999688 2.9136548 1.6257131
3.3690653 2.9849999 1.620754
0.23999998 3.0169673 1.6227467
1.9984014e-15 3.0277853 1.6275756
2.8671906 3.0999999 1.6214329
2.9598145 3.0999999 1.6202
3.0688372 3.0999999 1.6205262
3.308543 3.0999999 1.6236355
7.7199688 3.1043811 1.6265661
0.24000001 3.1420376 1.6216764
3.2749689 3.1683877 1.6264112
7.9599686 3.2032127 1.622422
7.9599686 3.2476058 1.6245781
3.6999688 3.3021173 1.6264085
3.2749689 3.3750231 1.6294959
7.7199688 3.3943467 1.6286894
1.9984014e-15 3.4020557 1.628269
3.6999688 3.4296367 1.6212313
3.6999688 3.4374352 1.6226456
7.7199688 3.4578161 1.6253078
1.9984014e-15 3.4974005 1.6235466
3.1549687 3.5318089 1.6208428
3.5249691 3.5534127 1.6207465
7.7199688 3.5592272 1.628533
1.9984014e-15 3.596709 1.6256517
3.2749689 3.595067 1.6231432
1.24 3.6194539 1.6227866
1.355 3.6109989 1.6257061
1.355 3.6247196 1.6250988
0.23999999 3.648015 1.6279174
3.1549687 3.6620784 1.6214315
7.9599686 3.7063537 1.6256421
3.6999688 3.7147117 1.6217916
3.6999688 3.733978 1.626269
7.9599686 3.7630329 1.6240865
3.2749689 3.8492572 1.622869
3.5249689 3.8899193 1.626546
7.9599686 3.8936462 1.6295497
3.6999688 3.940284 1.6212347
7.7199688 3.9401426 1.6263565
7.7199688 3.9772279 1.6225173
3.2749689 3.9975507 1.6234049
3.1549687 4.0049438 1.629566
1.24 4.0133686 1.6295671
0.23999999 4.0269585 1.6255767
3.6999688 4.0386267 1.6260915
3.6999688 4.0496335 1.6278023
1.355 4.0523615 1.6290766
1.355 4.0601602 1.6291281
7.7199688 4.0828452 1.6258521
2.3490674 4.1849999 1.6274531
2.5128989 4.1849999 1.6274822
2.8788328 4.1849999 1.6207024
2.9105866 4.1849999 1.6204569
2.924706 4.1849999 1.6203723
3.8267095 4.1849999 1.6266308
3.8550127 4.1849999 1.6275191
3.8637226 4.1849999 1.6254156
4.2254481 4.1849999 1.6227515
4.3183136 4.1849999 1.6246821
7.7199688 4.1897321 1.6240368
7.9599686 4.1830816 1.6262228
0.24000001 4.201313 1.6205602
1.9984014e-15 4.214561 1.6246946
4.3699689 4.217535 1.6293129
1.24 4.2488303 1.6221278
1.24 4.2661014 1.6285937
1.292901 4.2999997 1.62391
1.4150661 4.2999997 1.6232655
2.2528348 4.2999997 1.6248081
2.2906315 4.2999997 1.6271693
2.6324532 4.2999997 1.6217765
3.9817681 4.2999997 1.62603
4.3332229 4.2999992 1.6295416
5.35008 4.2999997 1.6265663
7.7199688 4.3035359 1.6255283
5.3499689 4.3932643 1.6223403
5.3499689 4.518229 1.6299229
5.4649687 4.5201902 1.6209371
5.4649687 4.583169 1.6298637
7.7199688 4.6187401 1.6294477
7.9599686 4.6557665 1.624599
5.3499689 4.6782179 1.6287969
5.4649687 4.7347765 1.6228949
5.4649687 4.747942 1.624841
5.3499689 4.7826853 1.6238068
5.4649687 4.8189869 1.6225288
5.3499689 4.9191599 1.6245475
5.3499689 4.933835 1.6235781
7.9599686 5.0862589 1.6238456
5.4649687 5.158865 1.6227441
5.4649687 5.2392564 1.6216693
7.9599686 5.2697234 1.6288908
0.28644174 5.3999996 1.6264079
0.69101185 5.3999996 1.6228185
0.8681066 5.3999996 1.6218699
1.8906226 5.3999996 1.6263875
2.2485812 5.3999996 1.6258631
3.6636295 5.3999996 1.6235995
3.8204622 5.3999996 1.6272285
4.0576181 5.3999996 1.6239972
4.0856032 5.3999996 1.6242522
5.1315374 5.3999996 1.6229256
5.1819553 5.3999996 1.6273215
5.3264589 5.3999996 1.6246039
5.3499689 5.3996544 1.6238682
5.902544 5.3999996 1.6280321
6.1363678 5.3999996 1.626279
6.2308292 5.3999996 1.6244026
7.4698172 5.3999996 1.6265818
7.7199688 5.4250946 1.6276518
7.7199688 5.4363418 1.6254703
7.7199688 5.4495754 1.6256933
3.2249689 5.4524498 1.6237111
0.79510802 5.5149999 1.620512
0.82374412 5.5149999 1.62134
0.86720562 5.5149999 1.6287866
0.92671978 5.5149999 1.6200913
1.0056794 5.5149999 1.6245117
1.1225886 5.5149994 1.6281067
1.3705667 5.5149994 1.6275946
1.5444598 5.5149999 1.6245458
1.7813258 5.5149999 1.6282631
3.4363003 5.5149994 1.6235657
3.6861 5.5150003 1.6247348
4.0712929 5.5149999 1.6246536
5.2408161 5.5149999 1.620394
5.6381502 5.5149999 1.6228499
5.9914398 5.5149999 1.622596
6.5885415 5.5149999 1.6268253
6.9960728 5.5149994 1.6246462
7.3988109 5.5149999 1.6247077
1.9984014e-15 5.5747089 1.6224256
7.9599686 5.6336441 1.6280109
7.7199688 5.6444769 1.6284047
7.7199688 5.7789044 1.6214097
7.9599686 5.7955818 1.6298634
0.23999999 5.8684978 1.6225605
4.039969 5.8791113 1.629269
4.039969 5.8944616 1.620409
1.9984014e-15 6.046711 1.6264662
4.039969 6.1396365 1.6238222
3.9249687 6.1601214 1.6299013
7.7199688 6.2023787 1.623961
0.23999998 6.2490311 1.6229917
4.039969 6.3068423 1.62745
7.9599686 6.4191766 1.6286596
3.9249687 6.5089636 1.6251384
0.23999998 6.5149198 1.6273756
4.039969 6.5397263 1.6203861
3.9249687 6.5942678 1.6239941
3.9249687 6.7175817 1.6266605
7.7199688 6.7653751 1.6252813
7.7199688 6.8675418 1.6238136
7.7199688 6.876204 1.6286881
0.24000001 6.9069982 1.6284022
7.7199688 6.9295173 1.6253722
0.23999998 6.9594908 1.6272464
4.039969 6.9671636 1.6255665
7.9599686 6.9776416 1.6297674
1.9984014e-15 7.0448437 1.6297206
7.9599686 7.0505247 1.6271545
3.9249687 7.1105061 1.6225089
4.039969 7.1213989 1.6210796
7.9599686 7.2183471 1.6223042
4.039969 7.2410631 1.6286564
7.7199688 7.2451468 1.6254306
1.9984014e-15 7.2728262 1.6264051
3.9249687 7.313282 1.6236333
7.7199688 7.353775 1.6216942
1.9984014e-15 7.3712053 1.6270574
0.23999999 7.420908 1.6212784
7.9599686 7.4984694 1.6275227
4.0399694 7.5277686 1.6290085
0.23999998 7.5940814 1.626132
4.039969 7.6762066 1.6223066
4.039969 7.9811692 1.6217744
7.7199688 8.0441236 1.6217959
1.9984014e-15 8.3415565 1.625541
1.9984014e-15 8.3502455 1.6242718
7.7199693 8.4001637 1.6246687
3.9249687 8.4375496 1.6216475
3.9249687 8.4455938 1.6246078
1.9984014e-15 8.4565582 1.628216
7.9599686 8.6369743 1.6218098
7.9599686 8.6496601 1.6270502
3.9249687 8.695302 1.6295879
4.039969 8.7036238 1.6221814
7.7199683 8.7849455 1.6241051
4.039969 8.8142328 1.6266071
1.9984014e-15 8.8219795 1.6281565
0.23999999 8.8295755 1.6293147
4.039969 8.8309174 1.6239432
7.9599686 9.0053005 1.629101
3.9249687 9.1039591 1.6205568
7.9599686 9.1289625 1.6257794
4.039969 9.1516485 1.6280149
7.7199683 9.1867828 1.6236765
4.039969 9.2143564 1.621904
1.9984014e-15 9.3078299 1.6251001
0.29965609 9.3599997 1.6223685
0.3731212 9.3599997 1.6210694
0.90075469 9.3599997 1.6228065
3.1503506 9.3599997 1.6248796
3.8428321 9.3599997 1.6234092
4.3263474 9.3599997 1.6257167
4.6393223 9.3599997 1.624481
4.7571006 9.3599997 1.6259736
7.0508046 9.3599997 1.6267794
7.2610927 9.3599997 1.621917
7.8766851 9.3599997 1.6253457
7.9311986 9.3599987 1.6252195
0.23999999 9.3982611 1.6205895
0.23999999 9.4339027 1.6290324
4.9899688 9.4890585 1.6286502
7.019969 9.5136194 1.6231461
0.11628191 9.5999985 1.6207604
0.35947657 9.5999994 1.6240008
0.57012832 9.5999994 1.6292475
3.2957931 9.5999994 1.6277562
3.3448229 9.5999994 1.6249131
3.5661621 9.5999994 1.6277087
4.5799751 9.5999994 1.6231561
4.9226427 9.5999994 1.6232976
4.9504185 9.5999994 1.6278765
7.3848524 9.5999994 1.6263151
7.6710739 9.5999994 1.6258563
0.37930077 -1.7881393e-07 1.6338462
0.40556461 -1.7881393e-07 1.6339219
0.47981116 -1.7881393e-07 1.6314828
0.68340755 -1.7881393e-07 1.6337502
0.96384728 -1.7881393e-07 1.6358888
1.6443113 -1.7881393e-07 1.6399341
3.1105256 -1.7881393e-07 1.6311232
3.4693232 -1.7881393e-07 1.6311512
3.5493004 -1.7881393e-07 1.6335758
4.0822105 -1.7881393e-07 1.6396965
4.1247807 -1.7881393e-07 1.6341808
4.5401235 -1.7881393e-07 1.6316931
4.8302341 -1.7881393e-07 1.6302998
7.2490396 -1.7881393e-07 1.6335524
7.2823167 -1.7881393e-07 1.6332207
7.7199688 0.023104304 1.6313055
7.019969 0.035590056 1.6305625
4.9899688 0.08629138 1.6384126
7.019969 0.091009133 1.6310854
7.7199688 0.12991349 1.6319644
7.7199688 0.13310793 1.6364998
0.22058173 0.15999985 1.6340194
1.71 0.15260454 1.6362865
7.7199688 0.17851928 1.6371473
7.019969 0.18276864 1.6301575
1.71 0.21391642 1.6347346
7.7199688 0.21778591 1.6345694
0.76329941 0.23999989 1.6318576
1.2521315 0.23999989 1.6340343
3.0495052 0.23999989 1.6385131
3.1071143 0.23999989 1.6301817
3.340251 0.23999989 1.6369506
3.4515672 0.23999989 1.6396356
3.5115397 0.23999989 1.6395466
4.2378864 0.23999989 1.6376313
4.5585423 0.23999989 1.632884
4.8671584 0.23999989 1.6361079
7.6037045 0.23999989 1.639762
0.23999999 0.24872063 1.6365348
7.7199688 0.25394282 1.6383893
7.7199688 0.28743464 1.63166
1.355 0.35682794 1.6326994
7.9599686 0.48700643 1.6332819
7.7199688 0.51806974 1.6354003
7.9599686 0.511684 1.6315259
0.23999998 0.53136802 1.6308788
3.6999691 0.56713349 1.6335335
3.6999688 0.59219921 1.6315491
3.5249691 0.64456236 1.6385788
1.24 0.70901102 1.6366303
7.7199688 0.72966814 1.6390712
1.355 0.80155408 1.6382214
1.24 0.89553088 1.6308463
0.24000001 0.9538011 1.6368763
0.23999999 1.0738052 1.6375499
1.355 1.0860353 1.6351755
1.24 1.0950696 1.6319314
3.6999688 1.1832097 1.6340567
1.9984014e-15 1.1903839 1.6376648
7.7199688 1.1919883 1.6369681
0.23999998 1.2009722 1.6363295
1.355 1.2033318 1.6321318
1.355 1.2843714 1.6312301
7.9599686 1.2983625 1.63134
1.355 1.3267543 1.6317008
7.7199688 1.3508435 1.6365259
0.24000001 1.4373944 1.6338612
1.24 1.5447896 1.6328912
3.5249691 1.5433751 1.635018
3.6999688 1.5521008 1.6393681
0.23999998 1.5901722 1.6398704
1.9984014e-15 1.6474118 1.6350068
3.5249689 1.6499693 1.6327226
1.24 1.6517413 1.6331215
1.355 1.6572431 1.6377773
1.9984014e-15 1.6819732 1.6348253
1.9984014e-15 1.7369884 1.6337465
3.5249689 1.8011143 1.6398984
1.355 1.8215331 1.6313818
1.24 1.9083598 1.6398493
3.6999688 1.9022233 1.630023
7.7199688 1.9628654 1.631617
1.24 2.0471199 1.6366035
3.6999688 2.1213934 1.6327112
3.6999688 2.13569 1.6315229
0.23999998 2.1922188 1.6304303
1.24 2.2006276 1.6330936
7.7199688 2.2120812 1.6320194
1.355 2.2562885 1.6364723
3.5249689 2.2806818 1.634584
3.6999688 2.2833741 1.6313202
7.7199688 2.3444149 1.6367853
7.7199688 2.368288 1.6378224
1.355 2.3740118 1.6373687
7.7199688 2.3960614 1.6382186
1.9984014e-15 2.4052255 1.6333125
3.5249689 2.4373822 1.6342794
7.7199688 2.5026407 1.6315722
3.6999688 2.536896 1.6390752
1.9984014e-15 2.5593915 1.6374705
0.24000001 2.5899189 1.6317517
3.5249686 2.5993483 1.6397041
0.24000001 2.7097411 1.6318822
1.9984014e-15 2.7563441 1.6371815
3.5249689 2.7867541 1.6349247
1.24 2.8507824 1.6344883
1.9984014e-15 2.8960781 1.6362858
1.9984014e-15 2.9198747 1.6345656
2.6830652 2.9849999 1.6302409
2.7412415 2.9850001 1.6320388
3.5249691 3.0374248 1.633183
2.5249689 3.0610871 1.6348503
2.7137074 3.0999999 1.6365155
2.8183599 3.0999999 1.6358731
2.8957469 3.0999999 1.6334423
2.952075 3.0999999 1.6328537
3.1827319 3.0999999 1.6302568
3.4409351 3.0999999 1.6322784
1.9984014e-15 3.1438143 1.6385221
3.2749686 3.1436193 1.6357946
0.23999998 3.159431 1.6353979
3.2749689 3.1884737 1.6318651
3.6999688 3.2061028 1.631389
7.9599686 3.2049203 1.6357124
1.355 3.2570868 1.6395421
3.1549687 3.3025746 1.6336068
0.23999999 3.3186774 1.6393156
1.9984014e-15 3.3570433 1.6339428
1.355 3.3735423 1.6304241
3.1549687 3.3747811 1.6326406
3.1549687 3.4293842 1.6371552
0.24000001 3.4444516 1.6308297
3.5249689 3.4648402 1.6358218
3.2749691 3.5190556 1.6381876
1.9984014e-15 3.5505855 1.6378181
3.2749689 3.6587143 1.630928
7.7199688 3.6524003 1.6347411
3.1549687 3.6988945 1.6343451
7.9599686 3.7119617 1.634428
1.9984014e-15 3.7366092 1.6375015
7.7199683 3.7619011 1.6393427
0.23999999 3.7774436 1.6396443
3.5249686 3.7809935 1.6343678
7.7199688 3.8400376 1.6397092
1.24 3.8544042 1.6321999
7.9599686 3.8626359 1.6361098
0.23999999 3.8874846 1.6390122
0.24000001 3.9147046 1.6368001
3.5249686 3.9324811 1.6332161
1.24 4.0126867 1.6392325
1.355 4.0686092 1.6332486
1.267148 4.1849999 1.6382866
2.4751408 4.1849999 1.6393096
2.5338476 4.1849999 1.6389074
2.6857169 4.1849999 1.6360005
2.8938124 4.1849999 1.6320839
3.204505 4.1849999 1.6359656
3.3321784 4.1849999 1.6324399
3.5909243 4.1849999 1.6375343
3.6419463 4.1849999 1.6393255
3.6838694 4.1849999 1.6335986
5.3751917 4.1849999 1.6387216
5.4649687 4.2526751 1.6335155
2.2842712 4.2999997 1.6348765
3.6448236 4.2999997 1.6367466
3.788507 4.2999997 1.6335484
3.8236191 4.2999997 1.6313887
5.2919073 4.2999997 1.6310296
5.4124928 4.2999997 1.6397612
2.6618664 4.3000002 1.6355948
0.20566097 4.335 1.6366071
5.4649687 4.3687286 1.6374357
7.7199688 4.4793072 1.6339481
5.3499689 4.7105961 1.6378816
5.4649687 4.7136068 1.6375206
5.4649687 4.8132563 1.6307764
7.7199688 4.8225408 1.6317072
7.9599686 5.1671419 1.6398488
0.054023165 5.2650003 1.6364862
0.20303552 5.2649999 1.6387109
7.9599686 5.303247 1.6373914
0.25737238 5.3999996 1.6389302
0.53425646 5.3999996 1.6326967
0.62838233 5.3999996 1.6314696
0.69024122 5.3999996 1.6340508
1.3833952 5.3999996 1.6371273
1.5166821 5.3999996 1.6326975
3.7261102 5.3999996 1.6394615
5.1151571 5.3999996 1.6352941
5.3562088 5.3999996 1.6354653
5.4966192 5.3999996 1.6317514
6.2180028 5.3999996 1.6396095
7.0980234 5.3999996 1.6353855
7.3859625 5.3999996 1.6315405
7.3950233 5.3999996 1.6354828
7.6280527 5.3999996 1.6332251
5.0399685 5.4688025 1.634003
4.1399689 5.4902601 1.6386647
0.61310768 5.5149999 1.6329221
0.62584364 5.5149999 1.6382447
1.4412881 5.5149999 1.6368715
1.5520405 5.5149999 1.6360615
4.0192895 5.5149999 1.6360791
5.2449589 5.5149999 1.6371001
5.2576356 5.5149999 1.6320462
5.5199995 5.5149999 1.6315895
6.3114491 5.5149994 1.6317533
6.3371439 5.5150003 1.6316088
6.3478918 5.5150003 1.638196
6.8816423 5.5149999 1.6332662
7.0526867 5.5149999 1.636047
7.3065653 5.5150003 1.6393228
7.3702722 5.5149999 1.6380754
7.7195168 5.5149999 1.636955
3.9249687 5.5319715 1.6364784
1.9984014e-15 5.5783501 1.6376733
1.9984014e-15 5.6250954 1.6385897
7.7199688 5.7600932 1.6362057
1.9984014e-15 5.7853961 1.6357439
1.9984014e-15 5.9256072 1.6373041
3.9249687 6.0080171 1.6385292
0.23999998 6.0287275 1.6394116
3.9249687 6.0323362 1.6366036
4.039969 6.0789213 1.6336631
1.9984014e-15 6.157958 1.6314235
4.039969 6.1588879 1.6353974
4.039969 6.1668739 1.6300902
7.7199688 6.1778908 1.6385143
1.9984014e-15 6.2468195 1.6365867
1.9984014e-15 6.2786784 1.6340998
1.9984014e-15 6.2936378 1.6393008
4.039969 6.4338961 1.6317337
4.039969 6.4460402 1.6376934
1.9984014e-15 6.5433354 1.6315192
7.7199688 6.5482912 1.6311744
1.9984014e-15 6.5827551 1.633896
7.7199688 6.5980062 1.6308836
4.039969 6.6001406 1.637007
7.9599686 6.6075959 1.6333998
7.7199688 6.7050214 1.6352435
0.23999999 6.8135395 1.6364559
0.23999998 6.8296585 1.6341107
4.039969 6.849885 1.6386269
7.9599686 6.8426061 1.6378098
7.7199688 6.9172812 1.6397381
3.9249687 6.9603767 1.6384599
7.9599686 6.9777417 1.6392349
1.9984014e-15 7.1608114 1.6364872
7.7199688 7.1604347 1.6316013
3.9249687 7.17975 1.6306105
3.9249687 7.1975727 1.630362
4.039969 7.191576 1.6328466
7.9599686 7.2923055 1.6304151
0.23999998 7.5400476 1.6379972
1.9984014e-15 7.5506167 1.6319917
1.9984014e-15 7.5873723 1.6347262
7.9599686 7.5886121 1.6334635
7.9599686 7.6340466 1.6302977
0.23999998 7.7034507 1.6321081
1.9984014e-15 7.7349043 1.6317588
0.23999998 7.782268 1.6377496
4.039969 7.8264294 1.6388199
4.039969 7.8469229 1.6349543
4.039969 7.8600631 1.631115
0.23999998 7.9196033 1.6305825
7.9599686 7.9203796 1.6342446
7.9599686 7.9379301 1.6368389
7.7199688 8.0377855 1.6312267
7.9599686 8.0530481 1.6397324
0.24000001 8.142066 1.6337764
4.039969 8.2614326 1.6346589
7.7199688 8.3091116 1.6354753
1.9984014e-15 8.3355446 1.6332744
4.039969 8.3588676 1.6375272
4.039969 8.3857317 1.63612
1.9984014e-15 8.4127989 1.6351937
3.9249687 8.4129429 1.6387362
4.039969 8.434082 1.6340609
3.9249687 8.4571981 1.6361341
3.9249687 8.4961929 1.6324903
7.9599686 8.507659 1.6341077
7.9599686 8.7071543 1.6301224
3.9249687 8.8770227 1.6339428
4.039969 8.8987408 1.6383326
1.9984014e-15 8.9681807 1.6348281
4.039969 8.9641104 1.639717
1.9984014e-15 8.9759216 1.6309068
3.9249687 8.993598 1.6309123
7.7199688 9.0153055 1.6309956
1.9984014e-15 9.1029243 1.634439
4.039969 9.1161003 1.6312686
7.9599686 9.1216574 1.6320844
0.23999999 9.1386423 1.6333761
7.9599686 9.1381502 1.6307511
3.9249687 9.2131519 1.6310387
1.9984014e-15 9.2594004 1.6328731
1.9984014e-15 9.2846689 1.6356376
4.039969 9.3036098 1.6351708
0.90091473 9.3599997 1.6343775
3.0134747 9.3599997 1.637536
3.2250953 9.3599997 1.6361437
3.4797812 9.3599997 1.6326666
3.78613 9.3599997 1.6371078
3.9181678 9.3599997 1.6319284
4.2161069 9.3599997 1.6398985
4.5380673 9.3599997 1.6342254
7.1118164 9.3599997 1.6340566
7.1983805 9.3599997 1.6388793
7.2304683 9.3599997 1.633621
7.3428116 9.3599997 1.6307441
7.5663404 9.3599997 1.6323123
7.7359295 9.3599987 1.6331477
7.8023491 9.3599997 1.6310358
7.9599686 9.3839979 1.6346176
1.9984014e-15 9.4641266 1.6300977
2.97 9.4968004 1.6350926
0.23999999 9.5470037 1.6367841
0.94 9.5521955 1.6390108
0.083311297 9.5999994 1.6392339
0.85814816 9.5999994 1.6348567
0.87894571 9.5999994 1.6355605
3.2043138 9.5999994 1.6330937
3.2994676 9.5999994 1.6392049
3.3071969 9.5999985 1.631691
3.4971023 9.5999994 1.6334178
3.546881 9.5999994 1.6365376
4.0276318 9.5999994 1.6387991
4.3548312 9.5999994 1.6326499
4.5746202 9.5999994 1.6398184
7.3988543 9.5999994 1.6370218
7.7481017 9.5999994 1.6396613
7.8629174 9.5999994 1.6303482
0.24488088 -1.7881393e-07 1.6415322
0.4772574 -1.7881393e-07 1.6403667
1.2852902 -1.7881393e-07 1.6492617
3.0819545 -1.7881393e-07 1.6491091
3.9968517 -1.7881393e-07 1.6470066
4.4592462 -1.7881393e-07 1.6469958
4.8259001 -1.7881393e-07 1.6419792
4.8672657 -1.7881393e-07 1.6466974
7.1736293 -1.7881393e-07 1.6460238
7.4666166 -1.7881393e-07 1.6402895
7.8075213 -1.7881393e-07 1.6469717
0.23999998 0.029647052 1.6432692
0.23999999 0.035834171 1.6453654
7.9599686 0.046333928 1.6435494
7.9599686 0.10996794 1.6495152
0.15601218 0.15999985 1.646041
1.71 0.16008312 1.6438274
7.7199688 0.17649132 1.643263
1.9984014e-15 0.19829229 1.648065
7.7199688 0.22456607 1.6457607
0.23999999 0.2318031 1.6419901
0.3977744 0.23999989 1.6428993
1.2870597 0.23999989 1.6491246
3.5891125 0.23999989 1.6459515
3.6689062 0.23999989 1.6451194
3.6831553 0.23999989 1.6443931
4.2257528 0.23999989 1.6489557
4.2993383 0.23999989 1.6494069
4.6291261 0.23999989 1.6410024
4.7456307 0.23999989 1.6408271
4.7737284 0.23999989 1.6424665
3.6999688 0.25783953 1.6437873
0.24000001 0.26154459 1.6435604
0.23999999 0.32117712 1.640856
0.24000001 0.3941313 1.6413355
1.355 0.4009617 1.642611
1.9984014e-15 0.48063582 1.643912
3.5249689 0.50554335 1.6491667
1.9984014e-15 0.51590455 1.6450653
1.355 0.53859073 1.6437045
3.5249686 0.57502311 1.6403413
7.7199688 0.59721726 1.6440132
1.355 0.6126138 1.6499422
1.24 0.81236297 1.6448517
1.355 0.82292128 1.6487715
0.24000001 0.87816375 1.6402296
3.6999688 0.91570687 1.6483645
1.355 0.92716032 1.6460459
1.9984014e-15 1.003616 1.6465129
3.5249689 1.0026646 1.6408714
1.24 1.0283546 1.6416911
7.9599686 1.0442314 1.6474724
3.6999688 1.0610052 1.6497114
3.6999688 1.1300253 1.6435773
1.24 1.2334169 1.6421409
7.9599686 1.2954335 1.6416225
0.24000001 1.3245749 1.6450691
1.355 1.3320506 1.642072
1.9984014e-15 1.3901629 1.6404166
7.9599686 1.3907679 1.6439848
1.9984014e-15 1.4072773 1.6462352
7.7199688 1.4103814 1.6420121
3.6999688 1.4411247 1.6415557
7.7199688 1.449031 1.6419065
3.5249689 1.5779266 1.6441892
1.355 1.617058 1.6421465
7.9599686 1.7352117 1.6486018
3.6999688 1.7545139 1.642859
7.7199688 1.7579008 1.640769
1.9984014e-15 1.800742 1.6457717
7.9599686 1.8198255 1.6481586
3.6999688 1.8532655 1.6466165
7.9599686 1.8864777 1.6445038
0.23999999 1.9363481 1.6444038
3.5249686 1.990628 1.6412332
1.355 2.0005689 1.6450926
0.23999998 2.0543821 1.6434937
1.355 2.0516834 1.6420683
0.23999998 2.0844719 1.646554
7.9599686 2.1415536 1.6484761
0.23999998 2.1542242 1.6474311
7.9599686 2.1888285 1.6422232
1.9984014e-15 2.2255468 1.6499207
1.24 2.3090646 1.6432328
1.9984014e-15 2.4607871 1.645175
7.9599686 2.4663026 1.6440815
1.9984014e-15 2.5299418 1.6409719
0.24000001 2.531229 1.6457174
7.9599686 2.5753155 1.6490927
7.9599686 2.5982051 1.6433001
1.355 2.6643493 1.6428198
0.23999999 2.7591829 1.6428903
7.9599686 2.7845707 1.649372
1.9984014e-15 2.8189321 1.6457884
7.9599686 2.8853714 1.6466593
1.24 2.8967454 1.6453131
0.23999998 2.9165823 1.6467125
2.5800796 2.9849997 1.6451929
3.0276544 2.9849999 1.644012
3.2190673 2.9849999 1.6420728
0.24000001 3.0431695 1.6406968
1.9984014e-15 3.0518618 1.6417048
1.9984014e-15 3.0784554 1.6491916
3.5249686 3.0705111 1.6426075
2.5375333 3.0999999 1.6489084
2.9442821 3.0999999 1.6495328
3.5249686 3.1118753 1.6402469
3.2749686 3.1273522 1.6433288
1.24 3.2016706 1.6484456
3.2749686 3.2433066 1.6429318
7.9599686 3.2744386 1.6445205
3.2749689 3.2865038 1.6448357
7.9599686 3.2860692 1.6494136
3.5249686 3.3003612 1.6491246
7.9599686 3.303124 1.6452142
3.1549687 3.5287523 1.6451064
3.2749689 3.5860775 1.6472998
3.2749689 3.8053851 1.6418673
1.24 3.8282208 1.6422615
3.2749691 3.8492975 1.6478744
1.9984014e-15 3.8828866 1.6461202
0.23999999 3.9029961 1.6470541
3.1549687 3.9511514 1.640751
3.6999688 3.9603052 1.6408325
7.7199688 3.9942398 1.6460423
0.23999998 4.03894 1.6460941
7.7199688 4.1488028 1.6428759
1.9984014e-15 4.1514745 1.6406934
1.2561491 4.1849999 1.6463839
1.3061931 4.1849999 1.6454589
2.239675 4.1849999 1.6448632
2.5630188 4.1849999 1.6462296
3.2730246 4.1849999 1.640038
3.526042 4.1849999 1.6496278
3.5313168 4.1849999 1.6407193
4.0802612 4.1849999 1.6416409
4.1032453 4.1849999 1.6475649
2.2249999 4.2450218 1.6428659
2.3273044 4.2999997 1.6440486
2.9324226 4.2999997 1.6472955
3.0801213 4.2999997 1.646109
3.1613598 4.2999997 1.6412693
3.5864434 4.2999997 1.647332
4.093008 4.2999997 1.6457256
4.2178721 4.2999997 1.6489593
4.256712 4.2999997 1.6494993
5.2715788 4.2999997 1.6474067
5.3784809 4.2999997 1.6489779
5.4649687 4.2925081 1.6439351
2.7607846 4.3000002 1.642429
0.13818152 4.335 1.641849
5.3499689 4.4241176 1.6451322
5.3499689 4.4409332 1.6430839
7.9599686 4.4926014 1.6428206
7.9599686 4.5909095 1.6419183
5.4649687 4.7429705 1.6497524
5.3499689 4.7673259 1.6445867
5.3499689 4.8228226 1.6435068
5.3499689 4.9361711 1.641556
7.9599686 4.955483 1.6481713
7.7199688 5.0362325 1.6477571
5.3499689 5.049655 1.6446505
0.12829305 5.2649994 1.6416188
5.4649687 5.2767811 1.6429312
7.9599686 5.3300152 1.6468651
0.23999999 5.3484302 1.6427172
0.3575837 5.3999996 1.6486678
0.45524463 5.3999996 1.6441164
1.2531545 5.3999996 1.6473628
1.5382262 5.3999996 1.6426725
1.934759 5.3999996 1.6421365
2.235173 5.3999996 1.6498723
3.2284102 5.3999996 1.6467713
3.3163211 5.3999996 1.6405874
3.4281802 5.3999996 1.6485513
3.9596353 5.3999996 1.6430402
5.4024496 5.3999996 1.6469451
5.6977711 5.3999996 1.643205
5.9491439 5.3999996 1.646222
6.1122484 5.3999996 1.6478982
6.2161765 5.3999996 1.640323
6.991725 5.3999996 1.6427673
7.5643454 5.3999996 1.6449741
7.9599686 5.3943419 1.6465116
0.24000001 5.4252024 1.6454233
7.9599686 5.4317894 1.6418769
0.24000001 5.454721 1.6443973
2.3249688 5.4507809 1.6469705
0.23999999 5.4720917 1.6447752
5.039969 5.4810166 1.6433656
0.71440876 5.5150003 1.6487025
1.2435507 5.5149999 1.6435202
1.3516111 5.5149999 1.6450945
3.277 5.5149999 1.6471738
3.8787994 5.5149999 1.6463513
3.9656897 5.5149999 1.6463544
5.5748496 5.5149994 1.6463672
5.8001642 5.5149999 1.6422021
5.9359074 5.5149999 1.6492605
6.0895491 5.5149999 1.6410458
7.3275914 5.5149999 1.6468284
7.9599686 5.5325823 1.6497221
0.23999998 5.6035128 1.6461623
4.039969 5.6350708 1.6496739
0.23999998 5.6886616 1.6412404
7.7199688 5.7531605 1.6419612
7.9599686 5.7646608 1.6424429
1.9984014e-15 5.9567475 1.6498525
4.039969 5.9774065 1.6496402
7.9599686 5.9831481 1.6439227
3.9249687 6.0345092 1.6496215
0.23999998 6.0587015 1.6438675
7.9599686 6.0530696 1.6405886
3.9249687 6.1232934 1.6413835
0.23999998 6.1483364 1.6460721
4.039969 6.1479397 1.6446314
1.9984014e-15 6.2503862 1.6442946
0.23999998 6.3170538 1.6435558
0.24000001 6.3687186 1.644573
1.9984014e-15 6.397809 1.6497524
3.9249687 6.4434118 1.6497854
7.9599686 6.4884176 1.6405121
4.039969 6.5207357 1.641896
4.039969 6.5493326 1.646419
7.9599686 6.5665755 1.6434939
0.23999998 6.6032429 1.6492822
3.9249687 6.6003895 1.6456515
0.23999998 6.6380906 1.6443853
7.7199688 6.8646927 1.6407561
4.039969 6.9332876 1.6487002
1.9984014e-15 6.9614248 1.6486864
3.9249687 6.9675417 1.6444745
7.7199688 6.9968486 1.6426101
3.9249687 7.0368938 1.648163
0.23999999 7.1834431 1.6445816
7.7199688 7.1853833 1.647706
3.9249687 7.2322311 1.6472373
1.9984014e-15 7.2838683 1.6473484
4.039969 7.3069935 1.6435372
1.9984014e-15 7.315238 1.647759
1.9984014e-15 7.6585159 1.6407738
3.9249687 7.6990576 1.6413786
4.039969 7.7046208 1.647314
0.23999999 7.7925682 1.647594
7.7199688 7.8608489 1.6400099
4.039969 7.9373355 1.6417068
1.9984014e-15 8.0424547 1.644412
0.24000001 8.0745583 1.6424887
7.7199688 8.1087713 1.6435409
7.9599686 8.1417065 1.6404195
7.7199688 8.2294941 1.6472967
1.9984014e-15 8.3066444 1.648589
3.9249687 8.3619452 1.646258
4.039969 8.4099941 1.6420634
1.9984014e-15 8.452528 1.6459
0.23999999 8.5861855 1.6423906
7.7199688 8.6273775 1.6465478
4.039969 8.7282867 1.6465074
0.24000001 8.7884188 1.6420342
1.9984014e-15 8.8245182 1.6419239
1.9984014e-15 8.9638615 1.6480005
1.9984014e-15 8.97822 1.6451111
0.24000001 9.0636292 1.6443876
3.9249687 9.1257076 1.6471992
7.9599686 9.2292089 1.6499088
7.9599686 9.2817307 1.6425831
7.9599686 9.3148937 1.6431754
1.9984014e-15 9.3234882 1.6429814
0.47865543 9.3599997 1.6416264
3.9102139 9.3599997 1.6483757
4.1141739 9.3599997 1.6418827
4.2966013 9.3599997 1.6424278
4.4480147 9.3599997 1.646307
4.9659123 9.3599997 1.6479872
7.1557007 9.3599997 1.6431756
7.8819399 9.3599997 1.6439667
3.5626979 9.3600006 1.6487777
4.3108387 9.3600006 1.640625
4.7183328 9.3600006 1.6449902
7.9599686 9.370882 1.645656
2.9699998 9.4185543 1.6479959
4.9899688 9.4860516 1.6405903
7.019969 9.549242 1.6429536
4.9899688 9.5681324 1.6420798
0.12183467 9.5999994 1.6402652
0.22115171 9.5999985 1.6496286
0.54459924 9.5999994 1.6419277
3.0703182 9.5999994 1.6438589
3.1358578 9.5999994 1.6424003
3.9473295 9.5999994 1.6403096
4.0730543 9.5999994 1.6401805
4.2249317 9.5999994 1.646589
4.9899688 9.592886 1.6424801
7.7881312 9.5999994 1.6433339
0.30769202 -1.7881393e-07 1.6521137
0.42659813 -1.7881393e-07 1.6520467
0.70923978 -1.7881393e-07 1.6543554
1.2344072 -1.7881393e-07 1.6567953
1.4808794 -1.7881393e-07 1.6556166
1.6245543 -1.7881393e-07 1.6552079
2.7840643 -1.7881393e-07 1.6557089
3.0931277 -1.7881393e-07 1.6543057
3.206264 -1.7881393e-07 1.6551428
3.2440917 -1.7881393e-07 1.6573581
3.2762771 -1.7881393e-07 1.6518065
3.3797655 -1.7881393e-07 1.6545706
3.6040776 -1.7881393e-07 1.6564779
4.1689806 -1.7881393e-07 1.6552619
4.2986317 -1.7881393e-07 1.6527886
4.7210832 -1.7881393e-07 1.6596714
7.1034417 -1.7881393e-07 1.6551133
7.5241995 -1.7881393e-07 1.6534276
7.5863085 -1.7881392e-07 1.6560755
7.019969 0.12715003 1.6514372
0.17978214 0.15999985 1.6530594
0.23999999 0.16815382 1.6584306
7.9599686 0.16192122 1.6531445
2.74 0.17394115 1.6577864
1.9984014e-15 0.23916706 1.6564509
0.9464823 0.23999989 1.6539056
1.1862874 0.23999989 1.6573653
1.2405225 0.23999989 1.6553569
1.3400884 0.23999989 1.6559961
1.6614487 0.23999989 1.6535234
3.3368919 0.23999989 1.6522003
3.5423231 0.23999988 1.6559502
3.663583 0.23999989 1.6593547
4.7670312 0.23999989 1.6522708
7.5606222 0.23999989 1.6520565
7.5726175 0.23999989 1.6593337
3.5249689 0.26791832 1.6584196
3.6999688 0.2929436 1.6575547
3.5249691 0.3860063 1.6518915
3.6999688 0.39530772 1.651194
3.5249691 0.48279452 1.6511024
7.7199688 0.50104207 1.6562892
3.6999686 0.51475054 1.6593391
1.355 0.52608311 1.6509284
1.9984014e-15 0.54283899 1.6500305
1.9984014e-15 0.55780876 1.6550866
3.6999688 0.61188722 1.6576543
1.24 0.69097412 1.6560249
3.6999691 0.73779875 1.6539156
1.355 0.81313515 1.6592364
7.7199688 0.96027309 1.6550361
3.5249689 0.97082216 1.6500819
3.6999688 1.0881405 1.6531628
1.355 1.1650039 1.6563969
3.6999688 1.1845903 1.650506
7.9599686 1.1943661 1.6549783
3.5249689 1.2322968 1.6530448
1.9984014e-15 1.2587082 1.6599169
1.9984014e-15 1.2754332 1.6591873
0.24000001 1.2762054 1.6513844
1.355 1.2994404 1.6521995
7.9599686 1.3345935 1.6553094
3.6999688 1.3858117 1.6534505
3.6999688 1.4708982 1.6565351
3.5249691 1.489458 1.6566027
1.9984014e-15 1.5143293 1.6513416
3.5249689 1.5621288 1.6522117
3.5249691 1.5721959 1.6571256
1.355 1.5810169 1.6545978
7.9599686 1.5814792 1.6543285
0.23999998 1.5958681 1.6553386
1.24 1.6132958 1.6514454
1.355 1.6273708 1.6584646
1.24 1.6556792 1.6526765
1.355 1.6994549 1.6525273
7.9599686 1.6907699 1.6559539
3.6999688 1.728331 1.6553921
1.24 1.7542658 1.6591157
0.23999999 1.7911248 1.6595811
1.9984014e-15 1.8130244 1.6531845
0.24000001 1.8257505 1.655275
1.355 1.8449421 1.6565726
1.9984014e-15 1.8793304 1.6518425
7.9599686 1.9069566 1.6527236
0.23999999 1.9187905 1.651541
1.355 1.9231043 1.6563258
1.24 1.943662 1.6569545
3.5249686 1.9446981 1.6534264
1.9984014e-15 1.9503363 1.6584094
3.5249691 1.9682701 1.6518931
1.355 2.0106735 1.6522609
1.9984014e-15 2.0309985 1.6514313
1.24 2.0845346 1.6527821
1.355 2.1034272 1.6573606
3.5249689 2.1681828 1.6555163
1.355 2.1887066 1.6558959
1.9984014e-15 2.2672408 1.6569881
3.5249689 2.265579 1.650975
7.7199688 2.3777175 1.6571532
0.24000001 2.4097862 1.6563259
7.7199688 2.4508252 1.6572373
7.7199688 2.5374653 1.6576256
0.23999999 2.6296422 1.6520993
0.23999999 2.6319699 1.6596361
1.24 2.6801815 1.6542314
1.355 2.6984899 1.6538866
0.24000001 2.7530398 1.6561207
1.355 2.7915087 1.6558404
1.24 2.8692212 1.6584287
7.9599686 2.9044666 1.6534352
2.9116228 2.9849999 1.6559982
3.0031197 2.9849999 1.6516752
3.0654745 2.9850001 1.6531806
7.9599686 3.0510397 1.6556278
1.355 3.0669441 1.6541274
2.5249689 3.0601852 1.6575601
3.5249689 3.0958788 1.6565742
3.1289432 3.0999999 1.6526358
3.1610773 3.0999999 1.6517133
3.5249689 3.1015844 1.6507097
7.7199688 3.1425884 1.6579249
1.9984014e-15 3.2467217 1.6592736
3.6999688 3.2485001 1.6529174
0.23999999 3.2503846 1.6519449
1.9984014e-15 3.3248379 1.6551559
0.23999998 3.3360808 1.6515039
7.7199688 3.3397849 1.658475
3.6999688 3.3441877 1.6515774
3.2749691 3.399776 1.6540399
1.9984014e-15 3.4360526 1.6590278
1.355 3.4392691 1.6568474
0.23999998 3.4454112 1.650576
3.1549687 3.5904374 1.6558208
1.24 3.6017766 1.6591721
3.1549687 3.6282363 1.6528751
1.24 3.6381066 1.6587956
7.9599686 3.6330132 1.6584115
3.1549687 3.6664462 1.6578563
3.6999688 3.6831143 1.6533798
1.24 3.7170825 1.6518494
3.2749689 3.7180662 1.6553032
1.24 3.7204494 1.6526546
1.9984014e-15 3.7389369 1.6575767
1.9984014e-15 3.7560508 1.6507574
3.6999688 3.7648678 1.6573883
1.9984014e-15 3.7802064 1.6564897
7.9599686 3.8179681 1.6519253
1.355 3.8394914 1.6565479
1.355 3.9291074 1.6577233
1.24 3.9314647 1.6566257
3.1549687 3.9536815 1.6592185
1.355 3.9907956 1.6567184
1.24 4.1265097 1.657181
7.9599686 4.1388335 1.6522906
3.2749686 4.1441674 1.652377
1.3308914 4.1849999 1.6538337
2.2609556 4.1849999 1.6576169
2.8369069 4.1849999 1.6550376
2.8832383 4.1849999 1.6511747
3.2411795 4.1849999 1.6576751
3.4421792 4.1850004 1.6574613
3.51068 4.1849999 1.6593111
5.269969 4.2582307 1.6517372
5.4649687 4.2533569 1.6597207
1.24 4.2712793 1.6546645
2.2249999 4.2717085 1.6506053
2.2965364 4.2999997 1.6528167
3.017345 4.2999997 1.6525843
3.1814644 4.2999997 1.6537337
4.0974426 4.3000002 1.6548803
1.9984014e-15 4.3238354 1.6524643
7.9599686 4.340528 1.6574374
5.3499689 4.5058622 1.6567487
5.4649687 4.5130439 1.6588807
7.9599686 4.5525889 1.6561105
5.4649687 4.581686 1.6586339
5.3499689 4.5927725 1.6511616
5.3499689 4.6162467 1.6539795
7.9599686 4.7023482 1.6503308
7.9599686 4.7710629 1.6501634
7.9599686 5.053659 1.6597639
7.7199688 5.1569014 1.6567036
7.9599686 5.176044 1.6525178
7.9599686 5.2334137 1.6578301
0.21479942 5.2649994 1.6551217
7.7199688 5.2781448 1.6529124
7.9599686 5.2990332 1.6516497
5.3499689 5.3714933 1.6521022
0.32465211 5.3999996 1.6554909
0.488464 5.3999996 1.6523087
0.85735267 5.3999996 1.6507759
1.1510925 5.3999996 1.6513114
1.4660113 5.3999996 1.656654
2.06306 5.3999996 1.6560279
3.2896302 5.3999996 1.6537095
3.7420654 5.3999996 1.6551881
4.0807018 5.3999996 1.6560519
4.1363664 5.3999996 1.6593497
5.4494152 5.3999996 1.6526345
5.4614143 5.3999996 1.657805
5.9765177 5.3999996 1.6524436
6.0325155 5.3999996 1.6543556
6.1896987 5.3999996 1.6545618
6.190537 5.3999996 1.6562912
6.4956408 5.3999996 1.6570767
7.5765533 5.3999996 1.6508385
5.039969 5.5035715 1.6588383
7.9599686 5.5040054 1.6534081
1.9984014e-15 5.5105882 1.6572578
0.28405619 5.5149999 1.6544394
0.8358919 5.5149999 1.6522965
1.0460173 5.5149999 1.6566104
1.4217474 5.5149999 1.655718
1.4477558 5.5149999 1.6585839
1.6183865 5.5149999 1.658536
2.2539387 5.5149999 1.6593027
5.4549317 5.5149999 1.6509316
5.5596361 5.5149999 1.6503396
6.4013548 5.5149999 1.6533672
6.4584727 5.5149999 1.6551507
6.8376584 5.5149999 1.6593029
7.3233194 5.5149994 1.6534504
7.6428971 5.5149999 1.6593508
1.9984014e-15 5.5335417 1.6576896
7.7199688 5.5327568 1.6597557
4.039969 5.6222129 1.6533986
1.9984014e-15 5.6536708 1.6574268
0.24000001 5.8714814 1.6557994
0.24000001 5.9368968 1.6545378
3.9249687 5.9400115 1.6554899
1.9984014e-15 6.0496416 1.6588441
4.039969 6.0504446 1.6552759
7.7199688 6.0849576 1.6562488
3.9249687 6.1392746 1.6580945
0.24000001 6.1860914 1.659981
4.039969 6.2246323 1.6529803
1.9984014e-15 6.3420229 1.6507528
7.7199688 6.4446688 1.6522863
0.23999999 6.4991169 1.6563932
7.9599686 6.4944663 1.6511923
7.7199688 6.5092092 1.6596963
1.9984014e-15 6.5289717 1.6570027
7.9599686 6.5650363 1.6537654
7.9599686 6.6194196 1.6503245
0.23999999 6.6748953 1.6530336
7.7199688 6.9100776 1.6589735
1.9984014e-15 6.9467869 1.6588662
0.24000001 7.0420537 1.6562707
7.9599686 7.0489593 1.6565214
0.23999998 7.104578 1.6514344
1.9984014e-15 7.1575518 1.6576554
7.9599686 7.211545 1.6547203
0.23999998 7.2639346 1.6533483
0.23999998 7.295156 1.6596344
3.9249687 7.3124185 1.6533409
7.7199688 7.3314643 1.6589659
3.9249685 7.3566337 1.6506027
7.9599686 7.4760833 1.6568984
3.9249687 7.5286145 1.6510341
7.7199688 7.5380998 1.6516268
7.7199688 7.5955954 1.6535298
7.7199688 7.7374549 1.6517835
1.9984014e-15 7.7586889 1.6501524
7.9599686 7.8473659 1.6531051
7.7199688 7.9859123 1.6564465
1.9984014e-15 8.005559 1.6547372
4.039969 8.0032377 1.6573418
3.9249687 8.1677494 1.6594085
3.9249687 8.1842813 1.6599697
3.9249687 8.3259087 1.6558959
0.24000001 8.3396664 1.6519581
1.9984014e-15 8.4026985 1.6573513
0.23999998 8.4101095 1.6536834
4.039969 8.4376488 1.6550376
3.9249687 8.4700375 1.6589291
7.9599686 8.4794588 1.654068
3.9249687 8.4874601 1.6526648
1.9984014e-15 8.5993032 1.6501172
3.9249687 8.6039877 1.6582319
1.9984014e-15 8.7117023 1.6531379
0.24000001 8.7316189 1.652902
0.24000001 8.8083239 1.652733
4.039969 8.8913603 1.6575376
3.9249687 8.9094296 1.6574955
3.9249687 8.9126244 1.6560266
7.7199688 8.9180861 1.6597183
3.9249687 8.9559269 1.6574385
0.24000001 9.0227251 1.6523832
1.9984014e-15 9.1913643 1.6540847
0.23999999 9.2049389 1.6536723
0.23999999 9.2130556 1.6548115
1.9984014e-15 9.3243341 1.6555434
0.2444921 9.3599997 1.6557835
0.29025412 9.3599997 1.6527691
0.67732203 9.3599997 1.6551756
0.87519091 9.3599997 1.6513973
0.9248631 9.3599997 1.6555917
3.3677144 9.3599997 1.6556798
4.3944845 9.3599997 1.6566895
4.7234468 9.3599997 1.65832
7.061399 9.3599997 1.6510868
7.1663895 9.3599997 1.6510806
7.4432044 9.3599997 1.6532853
4.9145803 9.3600006 1.6505566
4.9899683 9.3784819 1.6561859
7.019969 9.4563856 1.6568594
7.019969 9.5700741 1.6568359
0.29987898 9.5999994 1.6555803
3.0341551 9.5999994 1.6545463
3.4365909 9.5999994 1.6525799
3.8218715 9.5999985 1.6569049
4.2159204 9.5999994 1.6590409
7.2887096 9.5999994 1.6597942
7.3143864 9.5999994 1.6540173
7.4879456 9.5999994 1.6581414
0.61308813 -1.7881393e-07 1.6674597
0.79719949 -1.7881393e-07 1.6651628
0.91015023 -1.7881393e-07 1.6611229
1.1118705 -1.7881393e-07 1.6635906
1.1373389 -1.7881393e-07 1.6619627
2.8457422 -1.7881393e-07 1.6649027
2.9838371 -1.7881393e-07 1.6667758
3.5199172 -1.7881393e-07 1.6695881
3.7510281 -1.7881393e-07 1.6625683
4.139185 -1.7881393e-07 1.6609027
4.2921162 -1.7881393e-07 1.6654303
4.6547036 -1.7881393e-07 1.6626159
4.8029871 -1.7881393e-07 1.6667211
7.3600178 -1.7881393e-07 1.6664156
7.5247412 -1.7881393e-07 1.6668465
7.6631289 -1.7881393e-07 1.6650299
7.8890481 -1.7881393e-07 1.6672021
7.019969 0.013236448 1.6613338
4.9899688 0.082841732 1.6661162
1.71 0.10946542 1.6697059
1.71 0.14666039 1.6638489
0.041872345 0.15999985 1.6695127
0.23999998 0.17751278 1.6670539
4.9899688 0.18691367 1.6671134
0.23999999 0.21969156 1.6600045
0.72054935 0.23999989 1.6684858
1.1878848 0.23999989 1.6647027
1.4766673 0.23999989 1.6619639
3.1290221 0.23999989 1.6693772
3.5262189 0.23999989 1.6637685
3.5891223 0.23999989 1.6673993
3.7188139 0.23999989 1.6646764
4.1135988 0.23999989 1.6645647
4.8478174 0.23999989 1.6687738
7.1796775 0.23999989 1.6670313
7.5182495 0.23999989 1.6699853
7.9599686 0.24935688 1.6636232
3.5249689 0.32963187 1.6632675
3.6999686 0.32230017 1.6655926
1.9984014e-15 0.3347919 1.6649261
3.6999686 0.34251755 1.6682574
1.24 0.37179229 1.6617347
1.355 0.37609065 1.6648369
7.9599686 0.39557174 1.6665281
1.24 0.41249859 1.6604468
3.5249691 0.41388592 1.6620682
0.23999999 0.47343886 1.6640773
1.355 0.52519077 1.6677258
7.959969 0.56240988 1.6675072
3.6999688 0.58993524 1.6669668
1.355 0.60378879 1.6664151
7.7199688 0.62272722 1.6691066
7.9599686 0.62320143 1.6618129
7.7199688 0.6577248 1.6614945
7.9599686 0.67527908 1.6620026
1.24 0.76178777 1.6695753
3.6999688 0.7986117 1.6647955
7.7199688 0.79935539 1.6660177
1.355 0.82132274 1.6643903
7.9599686 0.84889793 1.6679841
7.9599686 0.87944239 1.6696397
7.7199688 0.90481454 1.6639419
3.5249691 0.91412163 1.6636224
7.9599686 0.95478338 1.6669716
0.23999999 0.99424803 1.6640716
3.6999688 1.0371118 1.665362
1.9984014e-15 1.075964 1.6656464
1.355 1.1144128 1.6666044
3.6999688 1.1154367 1.6671128
7.9599686 1.1645926 1.6678448
3.5249691 1.1745902 1.6681211
0.23999999 1.1928985 1.661544
0.23999999 1.2139268 1.6680592
1.24 1.2301795 1.6602377
1.355 1.2576853 1.6688162
7.9599686 1.2806598 1.6632587
0.23999999 1.3587863 1.6663668
1.9984014e-15 1.3678584 1.6655254
1.355 1.3730092 1.6672254
1.355 1.3875177 1.6683815
7.7199688 1.3968853 1.6660424
1.24 1.5213788 1.6610986
1.355 1.5548315 1.6663663
3.6999688 1.6616409 1.6604955
7.7199688 1.6673795 1.6627874
3.6999688 1.7408642 1.6609311
7.9599686 1.7463685 1.6612689
1.24 1.8266997 1.6682023
3.6999688 1.9323584 1.662958
1.9984014e-15 1.9601614 1.6638259
1.355 2.0274847 1.6669841
7.7199688 2.0281742 1.6696707
1.355 2.1053061 1.6637685
1.9984014e-15 2.1391387 1.6645564
3.6999688 2.1479254 1.6647172
1.355 2.2077239 1.6693901
7.9599686 2.2058449 1.6675296
1.24 2.2773807 1.6697404
0.24000001 2.2905586 1.6623024
3.6999688 2.3025172 1.6617482
1.24 2.368835 1.6614529
1.355 2.3806999 1.6646938
0.23999998 2.4103122 1.6616268
1.355 2.4690635 1.6636519
7.9599686 2.5178955 1.6696787
0.23999999 2.5887387 1.6695482
1.355 2.6589596 1.6698768
3.6999688 2.7277877 1.6629
2.6815619 2.9849999 1.6619928
2.7048149 2.9849999 1.6647093
2.9260986 2.9849999 1.6675022
3.4356778 2.9849997 1.6670716
3.5234261 2.985568 1.667449
7.9599686 2.9959867 1.6630404
1.24 3.0280881 1.6617296
2.5249689 3.0485904 1.6604106
2.697721 3.0999999 1.6683577
3.2772346 3.0999999 1.665997
1.24 3.1560011 1.6611249
1.24 3.1654408 1.6646743
1.24 3.1852126 1.6693404
1.355 3.1872644 1.6697625
3.5249689 3.2855239 1.6662309
3.1549687 3.2954743 1.6656682
1.355 3.3190887 1.6632906
7.9599686 3.3325355 1.6680973
1.24 3.3483655 1.6691151
3.5249686 3.3552334 1.6611333
0.23999999 3.4314394 1.6655176
1.24 3.4517407 1.6634572
1.24 3.4982209 1.6694012
3.5249689 3.6597421 1.6671352
3.2749689 3.6697922 1.6663816
3.2749691 3.6723676 1.6661024
3.2749689 3.7681775 1.6686759
1.24 3.7732046 1.6608
7.7199688 3.7881229 1.6695651
1.9984014e-15 3.8342199 1.6681565
1.355 3.8667562 1.6632994
3.1549687 3.8604321 1.6636901
3.2749686 3.9159024 1.667897
1.355 3.9253681 1.6624751
3.5249686 3.9528439 1.6666472
1.24 3.9742317 1.6625365
7.9599686 4.0286584 1.6656046
1.9984014e-15 4.0306711 1.6697034
1.24 4.0321732 1.661797
1.24 4.0887027 1.6624153
1.9984014e-15 4.0929246 1.6631882
0.23999999 4.1336756 1.6673138
2.8529179 4.1849999 1.6615996
3.4922311 4.1849999 1.6607947
3.5865085 4.1849999 1.669651
3.6006224 4.1849999 1.6620921
7.9599686 4.1874256 1.6630006
1.24 4.1947918 1.6689816
0.23999998 4.2064724 1.6626077
1.455 4.2721205 1.6674814
5.269969 4.2707696 1.6638024
2.2249999 4.2952166 1.6633112
2.247452 4.2999997 1.6606796
2.3611178 4.2999997 1.6677421
2.3909116 4.2999997 1.6698229
3.2986603 4.2999997 1.6660591
3.4026906 4.2999997 1.6623539
3.52 4.2999997 1.6695718
3.7821894 4.2999997 1.665822
3.9234753 4.2999997 1.6649196
3.9574835 4.2999997 1.6630807
4.0269122 4.2999997 1.6614161
4.1027284 4.2999997 1.6694043
4.3699689 4.2958922 1.6677111
5.4649687 4.3156309 1.6602206
0.14167057 4.335 1.6625463
0.23455262 4.335 1.6688935
5.4649687 4.3710775 1.6643201
5.4649687 4.4119606 1.6610209
7.9599686 4.4392262 1.6670331
5.4649687 4.4411173 1.6676308
5.4649687 4.5211563 1.6664438
7.7199688 4.7025967 1.6692199
7.7199688 4.7273855 1.6601641
5.4649687 4.8121505 1.6662729
7.7199688 5.0208559 1.6601048
5.3499689 5.0633183 1.6687411
7.7199688 5.1340218 1.6619216
5.4649687 5.201704 1.668923
5.3499689 5.312562 1.6609155
1.9984014e-15 5.3823652 1.662024
0.8395884 5.3999996 1.6603836
1.2801799 5.3999996 1.6619326
1.53908 5.3999996 1.662986
1.5896493 5.3999996 1.6691515
1.7812719 5.3999996 1.6640447
3.5913363 5.3999996 1.6645112
3.7342405 5.3999996 1.6612177
3.8030264 5.3999996 1.6675839
3.8871107 5.3999996 1.6678747
3.9258175 5.3999996 1.6642537
5.3416386 5.3999996 1.6633669
5.6543941 5.3999996 1.6654322
5.8951502 5.3999996 1.6636184
6.0995998 5.3999996 1.6657146
6.4417505 5.3999996 1.6672864
7.3291044 5.3999996 1.6620817
7.3836021 5.3999996 1.6611338
7.4802752 5.3999996 1.6622026
0.23999999 5.4123831 1.6676801
7.9599686 5.507021 1.6638713
0.40895748 5.5149999 1.6692474
0.89584231 5.5149999 1.6614195
0.97355843 5.5150003 1.6694651
1.2669507 5.5149994 1.6647758
2.0658708 5.5149999 1.6689154
3.9545708 5.5150003 1.6669888
3.9634709 5.5149999 1.6620362
4.1100321 5.5149999 1.6612396
5.0996709 5.5149999 1.6681376
5.7385101 5.5149994 1.6651129
6.1540546 5.5149999 1.6635728
6.1785269 5.5149999 1.6680305
6.2160902 5.5149999 1.660024
6.3897614 5.5149999 1.6693438
7.1290593 5.5149994 1.6690756
7.2797537 5.5149999 1.6605277
7.3781509 5.5149999 1.664451
7.4315953 5.5150003 1.6639674
4.0399694 5.5901995 1.669521
1.9984014e-15 5.6826525 1.6653185
0.23999999 5.7522955 1.6689942
0.24000001 5.8183475 1.6645348
7.9599686 5.848258 1.6628472
3.9249687 5.9296751 1.6687995
3.9249687 5.9417167 1.6690562
7.9599686 6.0651765 1.6632054
4.039969 6.4550495 1.663033
7.7199688 6.4542899 1.6656493
7.9599686 6.4826064 1.6673557
4.039969 6.6217732 1.6680787
3.9249687 6.6380076 1.6613328
4.039969 6.6585159 1.663054
0.24000001 6.8064027 1.665007
1.9984014e-15 6.8705263 1.6667343
7.9599686 6.964334 1.6642355
1.9984014e-15 7.0032096 1.6628351
1.9984014e-15 7.0377817 1.6615598
7.7199688 7.0595627 1.660682
7.9599686 7.1119714 1.6654344
4.039969 7.1324921 1.669898
7.9599686 7.269968 1.6651009
0.23999999 7.3583388 1.6628163
3.9249687 7.3765354 1.6658986
7.7199688 7.3780251 1.6646512
4.039969 7.4052477 1.6636629
7.7199688 7.4012055 1.6626318
7.9599686 7.4544764 1.6655065
4.039969 7.4903774 1.6698701
0.23999999 7.5121088 1.6628854
0.23999998 7.5373335 1.6624986
3.9249687 7.6818986 1.6624627
0.23999998 7.7082438 1.6694915
1.9984014e-15 7.7224407 1.6603681
1.9984014e-15 7.7702026 1.6680152
4.039969 7.7983446 1.6676493
7.9599686 7.8623271 1.6655918
1.9984014e-15 7.8783054 1.6601565
4.039969 8.064208 1.6668621
1.9984014e-15 8.0961933 1.6638952
0.23999999 8.1267471 1.6640154
0.24000001 8.1341448 1.665522
7.7199688 8.308301 1.6630162
7.7199693 8.3409586 1.6680214
7.7199688 8.4399357 1.6679144
0.24000001 8.5446892 1.6629319
7.7199688 8.5490828 1.6640587
7.9599686 8.5954752 1.6641489
1.9984014e-15 8.7484217 1.6664622
0.24000001 8.7458429 1.6650153
4.039969 8.7509785 1.6685914
3.9249687 8.7853708 1.6648328
0.23999999 8.8055973 1.6639836
7.7199688 8.803545 1.6605592
0.24000001 8.8612213 1.6635956
4.039969 8.9627275 1.6695027
0.24000001 9.0084534 1.6639658
1.9984014e-15 9.0323038 1.6673834
0.24000001 9.0731306 1.6609186
4.039969 9.1790266 1.6686107
7.7199688 9.1796551 1.6692123
7.7199688 9.3082685 1.662792
0.84974605 9.3599997 1.6646311
0.92524707 9.3599997 1.6691812
4.0214939 9.3599997 1.6645255
4.45648 9.3599997 1.6642792
4.8047333 9.3599997 1.6614752
7.13447 9.3599997 1.6606095
7.19274 9.3599997 1.6602441
7.4236755 9.3599997 1.6688297
7.6506624 9.3599997 1.6621907
7.9016829 9.3599997 1.6669253
0.23999999 9.3763561 1.6610994
4.9899688 9.4163666 1.6628063
1.9984014e-15 9.47682 1.6605593
0.23999998 9.4910765 1.6641362
7.9599686 9.528491 1.6608695
0.13574618 9.5999994 1.6674637
0.33227405 9.5999994 1.6664832
0.36679885 9.5999994 1.6625314
0.55532867 9.5999994 1.6665039
0.79925239 9.5999994 1.666975
3.3503339 9.5999994 1.665473
3.5848732 9.5999985 1.6681103
3.9058716 9.5999994 1.6627797
4.1547894 9.5999994 1.6641135
4.2075038 9.5999994 1.6684647
7.070251 9.5999994 1.6633697
7.8054242 9.5999994 1.6651144
1.6826338 -1.7881393e-07 1.6707853
2.8859515 -1.7881393e-07 1.6749896
3.0860353 -1.7881393e-07 1.676873
3.207746 -1.7881393e-07 1.679986
3.3342364 -1.7881393e-07 1.6723876
3.3759279 -1.7881393e-07 1.6731656
3.6031122 -1.7881393e-07 1.6763432
3.758662 -1.7881393e-07 1.6721663
3.8796067 -1.7881393e-07 1.6730263
4.115315 -1.7881393e-07 1.6775527
7.2164073 -1.7881393e-07 1.6751908
7.7529712 -1.7881393e-07 1.6741443
7.955174 -1.7881393e-07 1.6747664
7.019969 0.012066418 1.6740576
7.7199688 0.025328578 1.6743644
4.9899688 0.054306988 1.6767672
7.7199688 0.097489402 1.6732219
7.019969 0.12810741 1.6765913
0.10468808 0.15999985 1.6746447
0.11028757 0.15999985 1.6706451
1.9984014e-15 0.22427192 1.6700149
0.44077721 0.23999989 1.6703849
0.65858847 0.23999988 1.6737094
1.1795199 0.23999989 1.671507
1.2875174 0.23999989 1.6745017
3.0372438 0.23999989 1.6780274
3.7224722 0.23999989 1.6779006
4.0499334 0.23999989 1.6755247
4.3297143 0.23999989 1.6756067
0.23999998 0.24973595 1.676523
7.7199688 0.3041839 1.6767149
1.24 0.34130964 1.6755702
1.355 0.34286815 1.6794821
7.7199688 0.38085938 1.6700445
3.5249689 0.48422462 1.6705967
1.24 0.56734461 1.6727618
7.9599686 0.57929862 1.6743827
1.24 0.63578224 1.6765835
3.5249686 0.65728062 1.6745298
1.9984014e-15 0.66076499 1.6790013
1.9984014e-15 0.70450276 1.6794435
3.6999688 0.75951684 1.6795905
7.9599686 0.79152358 1.6779985
7.7199688 0.80997664 1.679211
7.9599686 0.81663907 1.6768013
7.7199688 0.95156205 1.6723564
7.7199688 1.008108 1.6787863
1.24 1.0480274 1.6774582
7.7199688 1.0486311 1.6777064
0.23999998 1.0676614 1.6774501
0.23999999 1.0652022 1.6720827
7.7199688 1.170329 1.6706078
3.6999688 1.2850667 1.6756268
1.9984014e-15 1.3441986 1.6797997
7.7199688 1.3418982 1.6703612
1.9984014e-15 1.4331206 1.6777879
1.355 1.4874901 1.6710069
7.7199688 1.5153357 1.6710105
7.7199688 1.6311947 1.6738085
3.6999688 1.7538226 1.6712433
1.24 1.7658921 1.6785291
1.9984014e-15 1.8242259 1.6795932
1.24 1.9107831 1.679862
1.355 1.93156 1.6783212
1.24 1.9630492 1.6762401
1.24 2.0227759 1.6767306
