# .PCD v0.7 - Point Cloud Data file format
VERSION 0.7
FIELDS x y z
SIZE 4 4 4
TYPE F F F
COUNT 1 1 1
WIDTH 1628
HEIGHT 1
VIEWPOINT 0 0 0 1 0 0 0
POINTS 1628
DATA ascii
1.9984014e-15 6.9400816 2.4470844
0.23999999 6.9414845 2.4465723
3.9249687 6.9518614 2.4411075
1.9984014e-15 6.9859872 2.4474702
7.9599686 6.9978986 2.4487305
0.24000001 7.0135727 2.4477072
3.9249687 7.0581641 2.4412327
4.039969 7.1198606 2.4434276
4.039969 7.1690397 2.4444366
1.9984014e-15 7.1829529 2.449183
7.7199688 7.241179 2.442754
1.9984014e-15 7.3687196 2.4431071
7.7199688 7.395874 2.44981
0.23999998 7.4815154 2.4452131
0.23999999 7.5632133 2.4456205
7.7199688 7.6282225 2.448163
7.9599681 7.7744536 2.4400735
3.9249687 7.794589 2.4402742
3.9249687 7.8798976 2.4418981
1.9984014e-15 7.9578319 2.4432333
0.24000001 8.0919571 2.4411154
4.039969 8.1295404 2.4416208
7.7199688 8.197319 2.4434476
4.039969 8.2783346 2.4438426
7.7199688 8.2758484 2.4422708
7.9599686 8.323657 2.4462786
4.039969 8.3630905 2.449863
1.9984014e-15 8.3746948 2.4402132
3.9249687 8.5174131 2.4467475
1.9984014e-15 8.5703011 2.4440885
7.9599686 8.5929699 2.4492526
4.039969 8.7458668 2.4484916
1.9984014e-15 8.7896223 2.4499769
0.24000001 8.8030653 2.4458349
4.039969 8.8379164 2.4479704
7.7199688 8.9844141 2.4496155
1.9984014e-15 9.170104 2.4499166
4.4007144 9.1999989 2.4457932
7.9599686 9.1948833 2.4448433
1.9984014e-15 9.2006931 2.4400954
0.69990695 9.1999998 2.4476643
3.4838367 9.1999998 2.444216
3.6632915 9.1999998 2.4488597
3.8981006 9.1999998 2.4450428
3.9341624 9.1999998 2.4451177
3.942842 9.1999998 2.4484682
4.016077 9.1999998 2.4409194
4.2761583 9.2000008 2.4431708
4.3907914 9.1999998 2.4416964
7.3505268 9.1999998 2.4465311
7.5712686 9.1999998 2.4489799
0.94 9.2153234 2.4408872
0.23999999 9.2997913 2.4487939
4.9899688 9.3248558 2.4413233
2.9700003 9.3428869 2.4402232
0.93999994 9.3745775 2.4458683
0.12855603 9.4399996 2.4486864
0.18576443 9.4399996 2.4457426
3.0076852 9.4399996 2.4498444
3.0976503 9.4399996 2.4447677
3.269583 9.4399996 2.4472089
3.4037735 9.4399996 2.4446282
3.8194389 9.4399986 2.4470768
3.8689361 9.4399986 2.4434381
4.0079794 9.4399996 2.4469211
4.2042933 9.4399996 2.4422615
4.4567995 9.4399986 2.4481003
4.7573743 9.4399996 2.4428248
4.9372849 9.4399996 2.4425147
7.0978236 9.4399996 2.444788
7.5811505 9.4399996 2.4485996
7.9567389 9.4400005 2.4443855
0.18300696 0 2.4552987
0.36437178 0 2.4510119
0.56378341 0 2.4582484
0.62478381 0 2.454565
0.65648097 0 2.4556289
0.71702337 0 2.4518881
0.83964783 0 2.4559202
0.87959808 0 2.4531085
1.0232192 0 2.4516931
1.1124048 0 2.4595113
1.1306628 0 2.4553163
1.5428325 0 2.4555821
1.6874231 0 2.4546735
2.8456976 0 2.4500265
3.4560494 0 2.4588826
3.4982443 0 2.4533641
3.6519325 0 2.4545176
3.9893858 0 2.4529536
4.0967741 0 2.4538178
4.1367621 0 2.4509346
4.2789402 0 2.4561572
7.5082555 0 2.456883
7.5966349 0 2.4534161
7.6011505 0 2.4511733
7.6940484 0 2.4548178
2.7399998 0.021744577 2.4587395
2.7399998 0.16408679 2.4518497
7.9599686 0.17798813 2.4540091
7.019969 0.21327567 2.4542713
0.57841301 0.24000001 2.4570916
0.94242442 0.24000001 2.459188
1.3036029 0.24000001 2.4563453
1.6393044 0.24000001 2.4518309
2.8900137 0.24000001 2.4531188
2.9376397 0.24000001 2.4514544
3.0251362 0.24000001 2.4553473
3.4647231 0.24000001 2.4583406
3.7032859 0.24000001 2.4522886
3.9017272 0.24000001 2.4511189
4.5509629 0.24000001 2.4586926
4.9808445 0.24000001 2.4588919
7.2489386 0.24000001 2.4573076
7.5170798 0.24000001 2.4535949
1.9984014e-15 0.28998098 2.4524994
0.23999999 0.3241888 2.4594555
3.4449687 0.47665298 2.4544146
0.23999999 0.51205122 2.4553668
1.9984014e-15 0.5761199 2.4594281
1.9984014e-15 0.66350466 2.4577136
7.7199688 0.71605039 2.4555888
1.355 0.801341 2.4520895
1.355 0.92215848 2.4543843
1.355 0.99091119 2.4511561
1.9984014e-15 1.0256149 2.4501958
7.9599686 1.109771 2.4527955
1.355 1.1988635 2.4578359
3.6199689 1.2011718 2.4574635
7.7199693 1.2024653 2.4571564
3.4449687 1.2248727 2.450743
3.6199689 1.2494019 2.4594808
1.355 1.2686744 2.456471
1.3550001 1.2809583 2.4519403
7.7199688 1.3345321 2.4550493
1.355 1.354757 2.4542687
7.7199688 1.3702743 2.4504063
7.9599686 1.4112383 2.4595947
3.6199689 1.4433422 2.4534793
1.355 1.4511346 2.4576933
1.24 1.4982085 2.4550486
1.9984014e-15 1.513006 2.4585538
0.24000001 1.5173167 2.4574139
3.4449687 1.526011 2.4511313
1.355 1.5767074 2.4593282
1.24 1.6379415 2.4538426
3.4449687 1.646318 2.4525571
3.4449687 1.7014236 2.4566083
1.9984014e-15 1.7451459 2.4549572
3.6199689 1.8081739 2.4575028
7.9599686 1.8081049 2.4584205
7.7199688 1.8698547 2.4542015
7.9599686 1.8673286 2.4502139
0.24000001 1.8859799 2.4567146
0.23999999 1.9002011 2.4517615
1.24 1.9502058 2.4506929
1.355 2.0840521 2.4558022
1.24 2.1087918 2.4505427
1.9984014e-15 2.1439271 2.4526031
0.23999999 2.1765716 2.4504299
3.6199689 2.2134516 2.4588284
1.355 2.2495282 2.4562702
0.24000001 2.2632041 2.4543211
7.7199688 2.3053651 2.459619
7.9599686 2.3072548 2.4572825
7.7199688 2.3860173 2.4504516
1.355 2.40486 2.4586577
1.9984014e-15 2.4446194 2.4595323
0.23999999 2.4460835 2.4592505
1.9984014e-15 2.5063632 2.4512887
3.6199689 2.5796194 2.4580908
1.9984014e-15 2.5842304 2.4586048
1.24 2.5815325 2.4522529
3.6199689 2.6757133 2.458755
1.24 2.689656 2.4516954
3.6199689 2.6844573 2.4526765
7.9599686 2.698653 2.4576995
7.9599686 2.7010906 2.4543579
7.7199688 2.7470946 2.4585102
3.4449687 2.7681429 2.45591
3.3260612 2.825 2.4551139
7.9599686 2.8718507 2.453855
7.9599686 2.9168313 2.450099
3.2403288 2.9399998 2.4531653
1.24 2.9456062 2.4502244
2.5758417 2.9400001 2.4502313
2.7036183 2.9400001 2.4527531
2.7504683 2.9400001 2.4579444
3.1043899 2.9400001 2.4535527
3.2674937 2.9400001 2.4565167
3.2984891 2.9400001 2.451452
3.3534286 2.9400001 2.4542544
7.7199688 2.9722533 2.452754
1.24 3.0311766 2.4510248
3.2749686 3.129087 2.4508827
1.24 3.1371729 2.4566555
7.9599686 3.1391747 2.4526258
3.1549687 3.1620398 2.4598627
3.2749691 3.1864622 2.4516859
3.2749689 3.228514 2.4525211
0.23999998 3.2556579 2.4509535
3.6199691 3.2647033 2.4566841
3.1549687 3.3045597 2.4539211
0.24000001 3.3223643 2.4580398
3.4449687 3.3608053 2.4543991
1.3549999 3.5324452 2.4504626
1.24 3.5718136 2.4575014
3.4449687 3.5722127 2.4555821
1.24 3.5834408 2.4557772
1.9984014e-15 3.6183269 2.4587755
3.1549687 3.6222358 2.4501243
7.7199693 3.6334627 2.4530313
3.2749691 3.83706 2.4543507
3.6199689 3.8483458 2.4547448
7.7199688 3.8469687 2.4519935
7.9599686 3.84694 2.4528561
1.355 3.8648996 2.4531596
1.9984014e-15 3.9496 2.4506078
1.24 3.9547577 2.4590995
3.4449687 3.9528382 2.4585998
3.4449687 3.9659524 2.4574597
1.2399999 3.973021 2.4568477
1.4480069 4.0250001 2.451432
1.6065769 4.0250001 2.4535069
2.0553296 4.0250001 2.4563169
2.0982757 4.0250001 2.4526525
2.5990915 4.0250001 2.455987
2.9536326 4.0250001 2.4599791
3.0589714 4.0250001 2.4549141
3.4527183 4.0250001 2.4548488
4.0334554 4.0250001 2.4535537
4.1982226 4.0250001 2.4542129
4.2031717 4.0250001 2.4525666
5.1694703 4.0250001 2.4534302
5.4359736 4.0249996 2.4525483
7.9599686 4.1027761 2.4508302
1.6134665 4.1399994 2.4514337
2.1421218 4.1399994 2.4575849
5.4649687 4.1358876 2.4527962
1.5887496 4.1399999 2.4533644
1.9901959 4.1399999 2.4521141
3.0461559 4.1399999 2.4565716
3.3055696 4.1399999 2.4555149
4.1157379 4.1399999 2.459955
4.4967399 4.1399999 2.4512198
4.6126575 4.1399999 2.4566917
4.6212368 4.1399999 2.4561689
5.0435772 4.1399999 2.4565105
5.1806173 4.1399999 2.4596829
5.3720827 4.1399999 2.450434
5.4006214 4.1399999 2.4565117
5.428678 4.1399999 2.4570477
0.024521198 4.1750002 2.4597442
5.4649687 4.3238559 2.4542241
7.9599686 4.5794845 2.4528317
7.7199688 4.5965562 2.4554174
5.4649687 4.7065063 2.4583509
5.3499689 4.7147942 2.455585
7.9599686 4.7121906 2.4522429
5.4649687 4.7779279 2.4520864
7.9599686 4.813127 2.4568324
7.9599686 4.8216457 2.4524975
7.9599686 4.9149618 2.4556501
5.3499689 5.1308241 2.4525089
7.9599686 5.232657 2.4518828
1.5355797 5.2399998 2.4566216
1.6904854 5.2399998 2.4519215
1.8034948 5.2399998 2.4537306
2.0086474 5.2399998 2.4540403
2.0869932 5.2399998 2.4539554
2.100045 5.2399998 2.4516947
2.1446857 5.2399998 2.456835
3.0331266 5.2399998 2.4555821
3.526721 5.2399998 2.455492
4.0870605 5.2399998 2.4520957
4.7001963 5.2399998 2.4510827
5.5124941 5.2399998 2.4527309
5.6193075 5.2399998 2.4583545
7.3765526 5.2399998 2.4564126
0.23999999 5.2789831 2.4540133
7.7199688 5.2869434 2.4559681
0.24000001 5.2939634 2.4576087
7.7199688 5.3356509 2.4549518
1.0285331 5.3550005 2.456028
1.4574181 5.355 2.4558351
1.80768 5.355 2.4553676
1.8633333 5.355 2.4592638
2.2383456 5.3549995 2.4520047
2.3882456 5.355 2.4571095
2.536999 5.355 2.4544001
3.2970495 5.355 2.4503486
3.3748214 5.355 2.4584105
3.6116757 5.355 2.455179
3.7495582 5.355 2.4507473
3.767586 5.3550005 2.4547398
3.8132579 5.355 2.4529243
4.0389156 5.3549995 2.4507747
4.2410488 5.355 2.4569778
4.4400663 5.355 2.4580178
4.8605185 5.355 2.4542069
5.4249058 5.3550005 2.4557319
5.5694761 5.3550005 2.451488
6.3775892 5.355 2.4510608
6.8585033 5.3550005 2.4541173
7.1084328 5.355 2.455512
7.1189108 5.3549995 2.453444
7.5195546 5.355 2.4541178
7.5302038 5.355 2.4578869
7.5812712 5.355 2.4530711
4.039969 5.4319234 2.45909
1.9984014e-15 5.4754095 2.4591751
3.9249687 5.5060725 2.4596844
0.24000001 5.6123896 2.45367
1.9984014e-15 5.6430373 2.4538519
1.9984014e-15 5.6882048 2.4543672
7.7199688 5.7309337 2.458602
0.24000001 5.7596173 2.4591498
1.9984014e-15 5.7640042 2.4524999
4.039969 5.7733154 2.454999
1.9984014e-15 5.785605 2.452738
7.7199688 5.7888002 2.4589343
3.9249685 5.8190136 2.4503481
1.9984014e-15 5.8295193 2.4510958
3.9249685 5.8315358 2.4510367
7.7199688 5.8648562 2.4566703
1.9984014e-15 5.8966646 2.4554341
3.9249687 5.9384661 2.4587047
0.23999998 5.9592752 2.4568772
1.9984014e-15 5.9778805 2.4576058
7.7199688 5.9843469 2.4525943
7.9599686 6.1457171 2.4523449
3.924969 6.22929 2.4508615
4.039969 6.2382231 2.4575591
7.9599686 6.2565017 2.4506907
7.9599686 6.2928758 2.454402
1.9984014e-15 6.3028994 2.4584396
3.9249687 6.313848 2.4572148
7.7199688 6.3338237 2.4504704
7.7199688 6.4736495 2.458348
3.9249687 6.6684561 2.4589157
1.9984014e-15 6.679513 2.4529355
1.9984014e-15 6.6864862 2.4502268
7.9599686 6.7192221 2.4554088
4.039969 6.7416515 2.4527473
1.9984014e-15 6.8390217 2.4526687
3.9249687 6.892241 2.4547496
1.9984014e-15 6.9985266 2.457701
7.9599686 7.0270696 2.4536672
3.9249687 7.0319028 2.4503789
1.9984014e-15 7.0687985 2.4577641
7.7199688 7.089314 2.4551153
7.9599686 7.0972295 2.4599395
3.9249687 7.1085777 2.457067
7.9599686 7.1185231 2.4565632
0.24000001 7.1374674 2.4540431
3.9249687 7.3115215 2.4502258
4.039969 7.3503284 2.4522119
1.9984014e-15 7.4657288 2.4517283
1.9984014e-15 7.4871554 2.4571323
3.9249687 7.5004692 2.4595549
4.039969 7.5836411 2.4529059
0.24000001 7.7670021 2.4565718
3.9249687 7.8187203 2.4507635
7.9599686 7.814425 2.4553227
7.9599686 7.8378596 2.4584846
4.039969 7.9908452 2.4522977
7.9599681 7.9961672 2.4563665
1.9984014e-15 8.0135965 2.4560323
7.7199688 8.0302782 2.4555593
1.9984014e-15 8.1180058 2.4550917
0.23999998 8.126996 2.4556007
1.9984014e-15 8.2087669 2.4528666
0.24000001 8.2079706 2.4570212
0.23999999 8.2181931 2.4590213
4.039969 8.306736 2.452086
7.9599681 8.324028 2.4596963
0.23999998 8.400322 2.4527156
7.9599686 8.4683475 2.4554226
3.9249687 8.494709 2.4531138
7.7199688 8.5257854 2.4570174
0.23999999 8.5310888 2.4573011
3.9249687 8.5876646 2.4584837
7.7199688 8.8274412 2.4573131
3.9249687 8.90905 2.4587371
0.24000001 8.9954557 2.452651
0.23999999 9.0125332 2.4525511
3.9249685 9.0765657 2.4595408
7.9599686 9.0728693 2.450798
1.9984014e-15 9.0862246 2.4561958
3.9249687 9.1018314 2.454998
1.9984014e-15 9.1207724 2.4546447
4.039969 9.127286 2.4511449
0.45513618 9.1999998 2.4575779
0.64125282 9.1999998 2.4522986
0.73534328 9.1999998 2.4562113
3.3706756 9.1999998 2.4516897
7.3339524 9.1999998 2.456986
7.9225554 9.1999998 2.4528339
7.9497924 9.1999998 2.455075
7.959969 9.2095299 2.4523404
2.9699998 9.2101183 2.4566805
0.94 9.2484207 2.451036
4.9899688 9.3116035 2.4570918
0.23999999 9.3281317 2.457716
0.23999998 9.3531523 2.4511216
0.093059793 9.4399996 2.4526186
3.0462797 9.4399996 2.4567113
3.3551879 9.4399996 2.4505892
4.2118878 9.4399996 2.4539297
4.5260892 9.4399996 2.4550395
4.6327205 9.4399986 2.4565947
4.9777174 9.4399996 2.4540324
7.1510906 9.4399996 2.4540639
7.5142879 9.4399996 2.4509552
7.7244816 9.4399996 2.4564826
3.8270133 9.4400005 2.4572375
0.41132975 0 2.465322
0.81627607 0 2.4688048
0.93838394 0 2.4636545
1.549071 0 2.4602022
1.5646281 0 2.4688368
1.617372 0 2.4663157
3.3169336 0 2.4630275
3.4338474 0 2.4638925
3.5357356 0 2.4642208
3.9332433 0 2.4648941
4.6624937 0 2.4643393
4.8484435 0 2.460197
4.8604927 0 2.468821
7.7609873 0 2.4611688
4.9899693 0.1499811 2.4629254
7.7199688 0.14496188 2.4637907
7.7199688 0.22397067 2.4696043
0.25455883 0.24000001 2.4667141
0.90418184 0.24000001 2.4634881
0.94205606 0.24000001 2.467468
1.2062067 0.24000001 2.4607401
1.3062116 0.24000001 2.4673905
1.4232084 0.24000001 2.4633722
2.8012645 0.24000001 2.4609971
3.3912013 0.24000001 2.4688969
3.5504503 0.24000001 2.4685009
3.5823884 0.24000001 2.4699183
3.7596917 0.24000001 2.4677472
3.8698001 0.24000001 2.4605594
3.8754845 0.24000001 2.4616845
4.3790498 0.24000001 2.4613347
4.5244889 0.24000001 2.4633782
3.4449687 0.26515096 2.46123
3.6199689 0.26585665 2.4681573
7.7199688 0.2711215 2.4601781
7.9599686 0.29104626 2.4631088
7.7199688 0.30563051 2.4624581
7.7199688 0.32363489 2.4630239
7.7199688 0.36789271 2.4678724
3.4449687 0.38918465 2.4686608
1.24 0.40671247 2.4612532
1.24 0.47831771 2.464139
7.7199688 0.48604295 2.4616661
1.9984014e-15 0.63918346 2.4629574
1.355 0.6364277 2.4628835
3.4449687 0.63079059 2.4668367
0.24000001 0.71992481 2.4692001
1.355 0.74664313 2.4645519
1.355 0.75373346 2.4676445
3.6199689 0.77221757 2.4646368
1.355 0.78598028 2.4665067
7.9599686 0.78103191 2.4656303
1.24 0.88365018 2.4658198
1.24 1.0037848 2.467052
1.9984014e-15 1.0712062 2.4685147
1.355 1.0911096 2.4673908
3.6199687 1.0976553 2.4689102
7.9599681 1.1090778 2.4622922
0.23999999 1.1108069 2.4610581
3.4449687 1.1417882 2.461339
3.4449687 1.289077 2.4666197
3.4449687 1.3186364 2.4635301
3.6199689 1.3977538 2.4642057
1.24 1.4979888 2.4682903
3.6199687 1.4953978 2.4687603
0.24000001 1.5049635 2.467339
3.4449687 1.5587741 2.4634395
3.4449687 1.6117325 2.4655082
3.6199689 1.7312189 2.4654832
1.24 1.7962389 2.4634352
1.355 1.8267195 2.4617682
3.4449687 1.8588378 2.460588
1.9984014e-15 1.8745446 2.4658017
1.24 1.943398 2.4697719
1.24 1.9577034 2.4680781
3.6199689 1.982739 2.4632254
7.9599686 1.9968349 2.4658008
1.24 2.016711 2.4615614
0.23999998 2.0502632 2.4691162
0.23999998 2.0685494 2.4626846
3.4449687 2.1194789 2.4636769
1.355 2.1219869 2.4616671
1.355 2.1419318 2.4601541
0.24000001 2.1633101 2.4611886
0.24000001 2.2107537 2.4602275
1.9984014e-15 2.2496178 2.4600301
1.355 2.4063473 2.4678862
0.23999999 2.4168677 2.462513
3.4449687 2.4170728 2.4614286
3.4449687 2.4286025 2.4626613
1.24 2.4530351 2.4650254
0.24000001 2.486321 2.4682443
7.7199683 2.4869595 2.4686422
1.355 2.5773327 2.4696579
3.4449687 2.5719309 2.4611831
3.6199689 2.6924887 2.4623389
7.7199688 2.755568 2.4641387
2.8372693 2.825 2.4669185
2.900737 2.825 2.4632411
3.3287613 2.825 2.4630346
1.355 2.8987815 2.461767
7.7199688 2.8924637 2.466589
1.355 2.9079785 2.4619613
1.9984014e-15 2.9244506 2.4610872
7.9599686 2.9306402 2.4605858
3.1908121 2.9400001 2.4658868
3.2441101 2.9400001 2.460403
3.6199689 2.9712191 2.4625516
1.355 2.9830313 2.4618328
3.4449687 3.028121 2.4690623
7.9599686 3.1225374 2.4645159
3.2749689 3.164602 2.4605527
3.6199689 3.1785841 2.4636774
3.1549687 3.2124975 2.4659195
7.7199688 3.2879298 2.4625714
1.355 3.3629432 2.4664259
1.24 3.371933 2.4611106
3.2749691 3.4568949 2.4667063
3.6199689 3.5264876 2.46961
0.23999999 3.5408757 2.4670908
1.24 3.5451496 2.4630609
7.9599686 3.5823276 2.466094
3.1549687 3.6862645 2.4609356
3.6199689 3.7145495 2.4635329
3.6199689 3.7298348 2.4675953
1.355 3.7573082 2.4659822
1.24 3.7715652 2.4660783
7.9599686 3.8400383 2.462476
1.9984014e-15 3.9533625 2.4650292
3.2749689 3.9589884 2.4611728
1.24 4.0140476 2.461278
1.6764377 4.0250001 2.4677081
1.8326589 4.0250001 2.4642749
1.9522051 4.0250001 2.4686253
2.6601536 4.0250001 2.4654884
2.690542 4.0250001 2.461714
3.201242 4.0250001 2.4615915
3.2579587 4.0250001 2.4699159
3.3917603 4.0250001 2.4613152
3.5241706 4.0250001 2.4682779
3.7266803 4.0249996 2.4660647
4.081727 4.0250001 2.4624865
4.5880704 4.0250001 2.4652815
4.7593136 4.0250001 2.4691093
5.4098563 4.0250001 2.4641414
1.6839302 4.1399994 2.4679604
4.9752951 4.1399994 2.4655404
1.5110615 4.1399999 2.4688759
1.7183533 4.1399999 2.4670918
1.9127485 4.1399999 2.4696844
2.9561491 4.1399999 2.4617455
3.341361 4.1399999 2.4622946
3.4758091 4.1399999 2.4619918
4.473362 4.1399999 2.466083
4.4826193 4.1399999 2.4699214
4.8844552 4.1399999 2.4652824
4.9158783 4.1399999 2.46456
4.953898 4.1399999 2.4610648
5.235795 4.1399999 2.4669323
5.2997017 4.1399999 2.4632399
0.055346243 4.1750002 2.4671912
0.078581385 4.1750002 2.4672205
5.3499689 4.2084317 2.4629612
7.9599686 4.2009683 2.4626496
7.9599686 4.3069263 2.4605472
5.4649687 4.4322062 2.4649427
5.3499689 4.44769 2.4601319
5.3499689 4.5215268 2.4650812
7.7199688 4.9661613 2.4633565
5.3499689 5.0129104 2.4679673
0.13416481 5.105 2.4665916
5.3499689 5.1702986 2.4645348
5.3499689 5.2010942 2.4652109
5.4649687 5.2012744 2.4683266
3.4359913 5.2399993 2.4631572
0.30355215 5.2399998 2.468781
0.65632206 5.2399998 2.4601216
0.80648792 5.2399998 2.4664564
1.4979644 5.2399998 2.4630117
1.5155287 5.2399998 2.4697802
2.0049255 5.2399998 2.4673433
3.0596607 5.2399998 2.4690745
3.141036 5.2399998 2.4601355
3.2065907 5.2399998 2.4681988
3.5457587 5.2399998 2.4679825
3.6321886 5.2399998 2.4684005
4.4761629 5.2399998 2.4636035
4.6521435 5.2399998 2.4688849
4.7990513 5.2399998 2.4645703
4.9169302 5.2399998 2.4603114
5.477911 5.2399998 2.4656794
5.6067867 5.2399998 2.4634705
6.0878067 5.2399998 2.4639857
6.3672767 5.2399998 2.4697735
6.4872494 5.2399998 2.4622636
6.5407705 5.2399998 2.469048
6.5641069 5.2399998 2.4635293
6.7245922 5.2399998 2.4684043
7.2654653 5.2399998 2.4633317
7.4024558 5.2399998 2.4684377
7.5400529 5.2399998 2.4696898
7.6646957 5.2399998 2.4645562
7.7199688 5.3019748 2.4690928
0.30012417 5.355 2.4675229
0.65067536 5.355 2.4653194
1.088714 5.355 2.4627912
1.3897777 5.355 2.4664207
1.59396 5.3549995 2.4665771
2.2459564 5.355 2.4610856
2.3041189 5.355 2.4615929
2.8423023 5.355 2.4651875
2.975682 5.355 2.4684978
3.1484504 5.355 2.4698825
3.9286907 5.3549995 2.4612277
4.2620635 5.355 2.4645481
4.5402517 5.355 2.4615021
4.5918913 5.355 2.465301
4.630621 5.3549995 2.4677935
4.7721229 5.355 2.4624605
4.9155169 5.355 2.4616406
5.1385751 5.355 2.4683778
5.5945535 5.355 2.4624856
5.7878056 5.355 2.4606459
6.2238021 5.3550005 2.4630878
6.2912922 5.355 2.4668479
6.5048542 5.355 2.4650836
7.0747008 5.355 2.4656498
7.3746858 5.355 2.4699948
7.5101852 5.355 2.4674413
0.23999999 5.4681096 2.4678078
4.039969 5.4654536 2.4655948
1.9984014e-15 5.5734143 2.4617333
7.7199688 5.5785494 2.4603899
0.23999998 5.6254511 2.4662776
3.9249687 5.6448531 2.4679224
0.23999999 5.791512 2.4607904
7.7199688 5.798861 2.4698911
0.23999999 5.9832206 2.4624648
7.7199688 5.9878416 2.4670427
7.9599686 5.9874759 2.4619303
3.9249687 6.0325365 2.4605069
3.9249687 6.0698504 2.4676423
7.7199688 6.0667162 2.4614394
4.039969 6.1678057 2.462182
1.9984014e-15 6.2036114 2.4650066
7.7199688 6.2675323 2.4642379
0.23999999 6.3662786 2.4603243
1.9984014e-15 6.4568281 2.4643373
7.7199688 6.4689603 2.4648232
7.9599686 6.530221 2.4627607
3.9249687 6.5781193 2.4690938
7.7199688 6.6161385 2.469739
3.9249687 6.6890574 2.4685948
4.039969 6.6833396 2.4604011
4.039969 6.7414207 2.4643571
0.23999999 6.838603 2.4655023
3.9249687 6.8487387 2.4677022
0.24000001 6.899229 2.4607451
0.23999999 6.9684916 2.4669099
7.7199683 6.980989 2.466516
7.7199688 7.046381 2.4692152
3.9249687 7.1159635 2.4663119
1.9984014e-15 7.1813788 2.4687068
4.039969 7.2047119 2.4662871
4.039969 7.2384048 2.4648523
3.9249687 7.2662773 2.4629722
7.7199688 7.3814836 2.4614956
0.24000001 7.4447074 2.469619
1.9984014e-15 7.570096 2.4651103
4.039969 7.6158657 2.4675803
3.9249687 7.7769251 2.4651206
1.9984014e-15 7.8234048 2.4647198
7.7199688 7.8382773 2.4677498
7.9599681 7.8301392 2.4654889
7.7199688 7.8802705 2.4638939
3.9249687 7.9166594 2.4621162
3.9249687 8.0219269 2.4686069
1.9984014e-15 8.0388851 2.468698
3.9249685 8.0408096 2.463316
4.039969 8.0910339 2.4621649
4.039969 8.151515 2.4694819
4.039969 8.2020855 2.4634662
3.9249687 8.2402191 2.4667387
4.039969 8.2472429 2.4693103
1.9984014e-15 8.3207569 2.4613523
4.039969 8.3258877 2.4659891
4.039969 8.3587761 2.4602313
1.9984014e-15 8.388031 2.4669237
7.9599686 8.3934574 2.4695549
3.9249687 8.5538216 2.4681354
0.23999998 8.5871544 2.4648545
4.039969 8.6035814 2.4601355
1.9984014e-15 8.6304483 2.4603281
7.9599686 8.719985 2.4688551
1.9984014e-15 8.7309093 2.4682441
3.9249687 8.8139153 2.4653704
7.9599686 8.9589005 2.4668245
7.9599686 9.1436825 2.4648705
0.23999999 9.1672583 2.4688644
4.4339991 9.1999989 2.4678271
0.42929828 9.1999998 2.4601963
0.59504873 9.2000008 2.4696269
0.65763813 9.1999998 2.4613771
3.90027 9.1999998 2.4644306
4.576139 9.1999998 2.4671335
4.9014845 9.1999998 2.4674559
4.9292159 9.1999998 2.4665859
7.1841016 9.1999998 2.4615855
7.5844526 9.1999998 2.4646363
7.9194736 9.1999998 2.4613912
0.94 9.2538738 2.4606457
1.9984014e-15 9.2802362 2.4620948
0.23999999 9.3341675 2.4631577
0.93999994 9.3461819 2.4616773
0.94 9.3586454 2.46628
4.9899688 9.3640003 2.4696331
0.94 9.3744345 2.4634643
1.9984014e-15 9.4078302 2.468364
1.9984014e-15 9.4343433 2.4665797
0.09086898 9.4399996 2.4624264
0.306853 9.4399996 2.4691725
0.34308869 9.4399986 2.4645805
0.49151924 9.4399996 2.4640279
0.51514959 9.4399996 2.4614592
0.79225063 9.4399996 2.463551
2.9850154 9.4399986 2.4657447
3.0408735 9.4399986 2.4641101
3.2195911 9.4399996 2.4654939
4.3409662 9.4399986 2.4694974
4.3525329 9.4399996 2.4662991
4.4070559 9.4399996 2.4688241
7.1857843 9.4399996 2.4680121
7.6664839 9.4399996 2.4698155
7.7276783 9.4399996 2.4655209
7.7402701 9.4399996 2.4694901
0.7306233 9.4400005 2.4630704
3.4828639 9.4400005 2.4650118
4.4139657 9.4400005 2.4671135
0.022255067 0 2.4795184
0.61355847 0 2.4794664
0.88300312 0 2.4782605
1.0376524 0 2.4750164
1.3275737 0 2.4779954
2.9927988 0 2.4700909
3.3441195 0 2.4746189
3.9075942 0 2.4768085
4.2198877 0 2.4740806
4.675138 0 2.4753547
4.7143955 0 2.4722569
7.3379869 0 2.4756675
7.6275334 0 2.4702196
7.019969 0.025261583 2.4775398
7.9599686 0.065751433 2.4737551
1.71 0.15202729 2.4770489
4.9899693 0.17430997 2.4777629
7.7199688 0.17247762 2.4745085
0.23999999 0.19823791 2.4705243
1.71 0.19370231 2.4704196
7.019969 0.23539647 2.4797657
7.7199688 0.23258805 2.4789994
1.9984014e-15 0.24765095 2.4792256
0.68844676 0.23999999 2.4759693
0.83789271 0.24000001 2.472394
0.89146465 0.24000001 2.4748423
1.0495274 0.24000001 2.4776564
1.1120946 0.24000001 2.4701915
1.6364051 0.24000001 2.4788485
2.9825821 0.24000001 2.4789481
3.1993926 0.24000001 2.473156
3.6722107 0.23999999 2.4776568
3.9975448 0.23999999 2.4723933
4.0197463 0.24000001 2.4799562
4.1325183 0.23999999 2.4743207
4.1438708 0.24000001 2.4798169
7.1742296 0.24000001 2.4748287
7.3437171 0.24000001 2.4757266
7.9599686 0.24585733 2.4748166
1.3549999 0.31239396 2.4790308
3.6199689 0.41697541 2.4707057
0.24000001 0.43995404 2.4755869
3.6199689 0.45786831 2.4736724
0.23999999 0.47099552 2.4790895
1.355 0.51439464 2.4753833
1.355 0.5217489 2.4709115
7.9599686 0.65872866 2.4725466
7.7199688 0.66938746 2.4793391
0.23999999 0.73553711 2.4787786
7.9599681 0.88866949 2.4784806
3.6199689 1.0588323 2.4758654
7.9599686 1.0510238 2.4786794
3.6199689 1.1171833 2.4756958
7.959969 1.1150709 2.4772377
7.9599681 1.1754336 2.4718392
0.24000001 1.1941372 2.4751148
3.4449687 1.2202303 2.4766476
7.7199688 1.2852135 2.4750836
7.959969 1.2811464 2.4757006
1.355 1.3229741 2.4794858
0.23999998 1.3555534 2.4713886
3.4449687 1.3788214 2.4729009
1.9984014e-15 1.4581594 2.4772606
1.355 1.4548404 2.4785547
3.4449687 1.4648665 2.475482
3.6199689 1.4856594 2.4769254
1.24 1.5147618 2.4799917
1.9984014e-15 1.6285057 2.4784105
1.9984014e-15 1.6578294 2.4777341
3.4449687 1.7161064 2.476428
3.4449689 1.734424 2.4713287
0.23999998 1.7451657 2.474822
3.6199689 1.7543013 2.4796576
7.7199683 1.9576426 2.4728377
0.24000001 1.9706038 2.4787877
1.9984014e-15 1.9878989 2.4715238
1.24 2.0042078 2.4757614
1.9984014e-15 2.0492992 2.4709048
0.23999999 2.1295991 2.4737244
3.6199689 2.156213 2.4793682
0.23999999 2.1753418 2.4762416
7.9599686 2.1874776 2.4742076
1.24 2.2093272 2.4706655
0.23999999 2.3854878 2.4740908
3.4449687 2.3858733 2.4761117
7.9599681 2.3919275 2.470046
3.4449687 2.4188054 2.4773817
1.24 2.4208112 2.4746666
3.6199689 2.4255869 2.4736438
3.6199689 2.4455357 2.4730434
7.9599686 2.4829607 2.4759808
1.355 2.5547104 2.4724588
3.4449687 2.5691595 2.4753933
1.9984014e-15 2.5892279 2.4792471
7.7199688 2.60168 2.4703059
1.9984014e-15 2.6279197 2.4769876
3.4449687 2.6672053 2.4784963
0.23999998 2.6761105 2.4784384
0.23999998 2.6840234 2.4789991
1.355 2.7101364 2.4701664
2.9123487 2.825 2.4763689
3.4282889 2.825 2.4784906
3.4449687 2.8247471 2.4745507
1.24 2.8375864 2.4757047
3.4449685 2.848841 2.4765632
3.4449687 2.8589725 2.4793363
3.6199689 2.8500404 2.476824
7.7199688 2.8726537 2.4717631
7.9599686 2.8726354 2.4766212
1.24 2.8820956 2.4723995
3.6199689 2.9265707 2.4772508
3.3931663 2.9399998 2.4788613
3.4393783 2.9400001 2.4706197
1.24 2.9594398 2.4795156
3.2749689 3.0098753 2.4774451
3.2749689 3.0300243 2.4705637
1.24 3.084918 2.4775887
3.1549687 3.0989184 2.4798183
7.9599686 3.1486044 2.4781342
7.9599686 3.1681767 2.4764371
3.6199689 3.1773956 2.4792271
3.4449687 3.2283413 2.4756682
7.7199688 3.2703784 2.4755661
3.4449687 3.284517 2.4715238
7.9599686 3.2958283 2.4783313
7.7199688 3.3078876 2.4740858
1.9984014e-15 3.3125203 2.4773755
3.2749691 3.3265343 2.4709365
3.4449687 3.3717968 2.4766116
7.9599686 3.3727438 2.4708581
3.6199687 3.3930573 2.4794078
3.4449687 3.4022975 2.474194
3.1549687 3.4114978 2.4759641
3.4449687 3.4576583 2.4769847
7.9599681 3.469945 2.4773769
1.355 3.4932303 2.471693
7.7199688 3.5434873 2.4773765
7.7199688 3.623929 2.4707012
0.23999998 3.6610923 2.4729602
3.1549687 3.7075019 2.476814
3.2749691 3.7115459 2.4738641
1.2399999 3.7254529 2.4783223
3.2749691 3.8155799 2.4727986
3.4449687 3.824301 2.4761474
0.23999999 3.8499386 2.4738197
1.24 3.8556054 2.4751368
0.23999999 3.860548 2.4707937
1.9984014e-15 3.8841844 2.4716902
3.6199689 3.8866959 2.4755366
3.2749691 3.8950038 2.4703512
7.9599686 3.9638481 2.4768932
1.4744856 4.0250001 2.4756813
1.5548511 4.0250001 2.4745903
1.8952763 4.0250001 2.4749572
2.2837305 4.0250001 2.4702163
2.509594 4.0250001 2.4773014
2.7324829 4.0250001 2.4785666
3.6177201 4.0250001 2.4762576
3.9621286 4.0250001 2.4722216
4.188952 4.0250001 2.474761
4.9978428 4.0250001 2.4764493
5.2222419 4.0250001 2.4752443
5.3114233 4.0250001 2.4799974
5.4286957 4.0250001 2.4700751
4.568162 4.1399994 2.4797537
1.2986293 4.1399999 2.4719493
1.7284076 4.1399999 2.4747891
1.9196367 4.1399999 2.4735832
3.0866354 4.1399999 2.4715934
3.0918109 4.1399999 2.4796908
3.8166065 4.1399999 2.4703941
4.2078285 4.1399999 2.4709423
5.4519377 4.1399999 2.4734674
5.3499689 4.2843847 2.4754493
7.7199688 4.3525391 2.4787402
7.9599686 4.423595 2.4720764
5.3499689 4.5092411 2.4761479
7.7199688 4.5757818 2.4729505
7.9599686 4.5838437 2.4753027
5.3499689 4.7128315 2.4755678
5.4649687 4.8191781 2.476475
7.9599686 4.8180461 2.4714577
5.3499694 4.8386135 2.4734163
5.4649687 4.8325119 2.4705505
7.7199688 4.8773503 2.478353
7.9599686 4.9179139 2.4729881
5.3499684 4.9520273 2.4713194
7.9599686 4.977695 2.4716673
5.4649687 5.0922565 2.4714377
0.095052019 5.1049995 2.4719329
0.18873109 5.105 2.472225
7.9599686 5.126543 2.4773769
7.959969 5.1439242 2.4713752
7.7199688 5.1637416 2.4728885
5.073627 5.2399993 2.4767408
0.78150201 5.2399998 2.470582
1.2312753 5.2399998 2.4797037
1.4591753 5.2399998 2.4720433
1.8230087 5.2399998 2.4759359
2.723484 5.2399998 2.4771073
2.7457194 5.2399998 2.4756901
2.7564626 5.2399998 2.4797578
3.0518219 5.2399998 2.4741688
3.3842034 5.2399998 2.4761126
3.416467 5.2399998 2.4774282
3.7445812 5.2399998 2.4751921
4.5841713 5.2399998 2.4706893
5.421977 5.2399998 2.472121
5.4559355 5.2399998 2.4772322
6.2038574 5.2399998 2.474606
6.4950752 5.2399998 2.4740674
6.5031948 5.2399998 2.4768143
7.9599686 5.2584949 2.4751725
7.9599686 5.2985005 2.4785893
0.23999999 5.3047671 2.4780025
7.9599686 5.3043413 2.4747355
0.53581834 5.355 2.4771683
0.79584312 5.355 2.471437
1.2734708 5.355 2.4793963
1.5006677 5.355 2.4745779
2.1272776 5.355 2.4795806
2.3267536 5.355 2.4753022
2.3413143 5.355 2.4768989
2.6702766 5.355 2.4737668
2.7794867 5.355 2.4713678
2.8818574 5.355 2.4745522
3.0621932 5.355 2.4739275
3.5111392 5.3550005 2.475956
3.6144533 5.355 2.4749739
3.9258208 5.3549995 2.478838
4.2855954 5.355 2.4750395
4.4292531 5.355 2.4717145
4.6871581 5.355 2.4773993
4.9625416 5.3549995 2.4728522
4.9845772 5.3549995 2.471447
6.0201883 5.355 2.4758794
6.2636585 5.3550005 2.4707267
6.5389957 5.355 2.47736
6.7110415 5.355 2.4722939
6.9309196 5.355 2.4778354
7.0369377 5.355 2.4724772
7.1281734 5.3550005 2.4706492
7.1991043 5.3550005 2.4727008
1.9984014e-15 5.3942604 2.4702759
7.7199688 5.4147334 2.4798644
3.9249687 5.4576879 2.4752288
7.7199688 5.4530649 2.476202
3.9249687 5.6199803 2.4722362
7.7199688 5.6311812 2.47332
7.959969 5.6554556 2.4739392
3.9249687 5.67836 2.478739
3.9249687 5.8382206 2.4704626
0.23999999 5.9874926 2.4753478
1.9984014e-15 5.9926615 2.4788344
4.039969 6.0150843 2.474916
1.9984014e-15 6.0203056 2.4780924
7.7199688 6.0544815 2.4799533
0.23999999 6.1512518 2.476171
0.24000001 6.2033024 2.4717805
7.7199688 6.3019748 2.4739914
1.9984014e-15 6.3634644 2.4788713
7.9599686 6.3741889 2.4700775
7.7199693 6.3824787 2.4774594
7.9599686 6.3918242 2.4789851
7.7199688 6.4140835 2.4791956
4.039969 6.5653305 2.4730496
7.7199688 6.7209682 2.4704711
7.7199688 6.8136349 2.4778702
7.7199688 6.8462486 2.4718666
4.039969 6.9692488 2.4713395
3.9249687 6.9999957 2.4754791
1.9984014e-15 7.0471992 2.4708152
7.7199688 7.1792688 2.4784155
7.9599686 7.1919351 2.473799
4.039969 7.2504506 2.4787307
4.0399685 7.2630239 2.4710023
4.039969 7.2733607 2.4713807
7.9599686 7.2976003 2.4754806
0.23999998 7.3987446 2.4710555
3.9249687 7.5442214 2.4783654
1.9984014e-15 7.55549 2.4755192
0.23999998 7.5545712 2.4780204
3.9249687 7.5817471 2.4766083
7.9599681 7.628047 2.4728656
0.24000001 7.6345339 2.472477
0.23999999 7.6505632 2.475939
3.9249687 7.6701717 2.4776249
1.9984014e-15 7.7004132 2.4750967
7.7199688 7.7422285 2.4795856
7.9599686 7.7759194 2.4717529
1.9984014e-15 7.7867908 2.4789228
1.9984014e-15 7.7989373 2.4729853
7.7199688 7.7929602 2.4741042
4.039969 7.8642998 2.4769425
4.039969 7.8871169 2.4768691
7.7199688 7.9058356 2.4700413
1.9984014e-15 7.9289551 2.478081
7.7199688 7.9374003 2.4740746
7.9599686 7.9578457 2.4703584
3.9249687 8.0607204 2.475204
0.23999999 8.1838083 2.4715662
4.039969 8.2046194 2.4712172
7.9599686 8.3341732 2.4711463
1.9984014e-15 8.5066013 2.4754295
7.7199688 8.5951157 2.4716654
7.7199693 8.628231 2.4700105
0.23999999 8.8201237 2.4794188
1.9984014e-15 8.8304329 2.4783199
7.7199688 8.8759317 2.471648
0.24000001 8.9243603 2.4725487
1.9984014e-15 8.9582491 2.4759901
1.9984014e-15 9.0093508 2.4782639
3.9249687 9.0203056 2.4747219
4.039969 9.0275221 2.4727955
3.9249687 9.041894 2.4758883
7.9599686 9.1307516 2.476721
7.4839249 9.1999989 2.4760599
0.52934259 9.1999998 2.4742765
0.77914041 9.1999998 2.4760218
3.3480597 9.1999998 2.4770455
3.4255974 9.1999998 2.4722238
3.7818682 9.1999998 2.4781075
3.9610131 9.1999998 2.4796751
4.4380722 9.1999998 2.4794304
4.9863138 9.1999998 2.4727559
0.94 9.2701406 2.4742396
7.9599686 9.2842417 2.4766886
7.019969 9.2990742 2.4736767
1.9984014e-15 9.3176527 2.4739745
0.23999999 9.3413649 2.4752412
2.97 9.344862 2.4750509
0.94 9.3728857 2.470691
0.94000006 9.4241018 2.4785755
0.044947583 9.4399996 2.4779778
0.87134027 9.4399996 2.4785137
7.0804143 9.4399996 2.4735162
7.7337656 9.4399996 2.4762852
0.010701198 0 2.4896412
0.060039394 0 2.4893262
0.26318386 0 2.4894142
0.49799556 0 2.4851444
0.89077735 0 2.4832888
1.0318264 0 2.4880614
1.5465834 0 2.4872675
1.6596286 0 2.480449
2.8205793 0 2.4833694
2.9670615 0 2.4833698
3.7709632 0 2.4838643
3.9048924 0 2.4830997
3.9609923 0 2.4815707
4.5041742 0 2.4842372
7.3851929 0 2.488204
7.4139409 0 2.4884446
7.5948782 0 2.4892986
0.24000001 0.038217805 2.4820333
1.71 0.14454415 2.4885983
7.019969 0.14864184 2.4826777
1.9984014e-15 0.19116263 2.4883475
0.57659012 0.24000001 2.4812305
0.6259805 0.24000001 2.4884009
0.70655209 0.24000001 2.4802017
1.0423322 0.24000001 2.4817514
1.2229812 0.24000001 2.4854164
1.5227498 0.24000001 2.4823806
1.5968254 0.24000001 2.4814377
1.6737109 0.24000001 2.4828014
1.6809549 0.24000001 2.4893184
3.3174295 0.24000001 2.4853897
3.5923631 0.24000001 2.4806621
3.9168928 0.24000001 2.4892464
7.0693016 0.24000001 2.4853776
7.3947802 0.24000001 2.4860616
7.5029764 0.24000001 2.4826481
7.6995368 0.24000001 2.4800191
1.355 0.31492001 2.4809723
7.9599686 0.33141288 2.4865468
0.24000001 0.44260031 2.4828193
1.9984014e-15 0.52403933 2.48788
0.23999999 0.5523715 2.482517
1.24 0.63954633 2.4873693
0.23999998 0.74727857 2.4879332
0.24000001 0.76198411 2.4823163
1.24 0.76656711 2.4882977
3.4449687 0.90639198 2.4879975
7.959969 0.90383774 2.483907
1.9984014e-15 1.0262769 2.4891994
3.6199687 1.0323209 2.4836631
1.24 1.0793562 2.4891875
7.9599686 1.0864886 2.4828129
1.24 1.1629517 2.4841945
3.6199689 1.1909245 2.4839439
1.9984014e-15 1.2323668 2.4828143
1.24 1.2405357 2.4876394
7.7199683 1.2987113 2.4846804
3.4449689 1.3065686 2.481159
3.6199689 1.3185848 2.4891329
1.24 1.4475722 2.4874952
3.6199689 1.4615679 2.4881051
1.355 1.4897933 2.4801912
7.7199688 1.5441009 2.4801648
1.9984014e-15 1.6211756 2.4876721
1.355 1.6507382 2.4809155
0.23999998 1.7799852 2.4880223
1.24 1.8182204 2.4898396
7.959969 1.8119966 2.4872599
7.7199688 1.8475753 2.4834671
7.9599686 1.8505081 2.4883323
0.23999999 1.9197031 2.4823112
7.7199688 1.9283582 2.4854786
1.9984014e-15 1.9882169 2.4841008
3.6199689 2.0298274 2.4866314
3.4449687 2.0426507 2.485311
7.7199688 2.2478848 2.4845645
7.7199688 2.2942803 2.4835551
3.6199689 2.3334227 2.4819987
1.9984014e-15 2.3470604 2.486455
0.23999999 2.4274454 2.4812858
0.23999998 2.4590781 2.4894137
7.7199688 2.5083015 2.4841871
0.23999999 2.5354435 2.4823837
7.9599686 2.5340323 2.4862862
1.9984014e-15 2.6330311 2.4853842
0.23999999 2.6759474 2.4863915
1.355 2.6963332 2.4870446
1.24 2.7035897 2.4874284
1.355 2.7429564 2.4897151
7.9599686 2.7419162 2.4842417
3.4449687 2.7803223 2.4815993
7.9599686 2.7946692 2.4852562
2.9798665 2.825 2.4833326
3.0579731 2.8250003 2.4803109
3.1363945 2.825 2.4802213
3.2757025 2.8249998 2.488148
3.3615901 2.825 2.4835284
2.5249689 2.8446186 2.4890637
2.6792204 2.9400001 2.4897485
3.0404732 2.9400001 2.4871283
3.0980704 2.9400001 2.4826498
3.310437 2.9400001 2.4822659
3.6199689 3.0668032 2.4899318
7.7199688 3.1048026 2.4821978
1.9984014e-15 3.1392965 2.488596
7.9599686 3.1376793 2.480032
7.7199688 3.1538501 2.4838743
3.1549687 3.2168031 2.4824069
7.9599686 3.2212932 2.4840918
1.9984014e-15 3.2713659 2.4843936
7.7199688 3.2815018 2.4833589
7.7199688 3.3525164 2.488071
0.23999999 3.5135181 2.48193
1.9984014e-15 3.5465703 2.48647
7.7199688 3.5405569 2.486871
1.9984014e-15 3.5887311 2.4880819
1.9984014e-15 3.6027555 2.4840415
1.9984014e-15 3.6202977 2.4853439
7.7199688 3.6860967 2.4837787
3.4449687 3.7096939 2.4862158
1.9984014e-15 3.7112472 2.4820282
7.9599686 3.7677262 2.480413
3.2749686 3.8049197 2.4882967
7.7199688 3.8039048 2.4810553
3.1549687 3.8744574 2.4890659
3.6199689 3.8766305 2.4879396
0.23999999 3.9244809 2.4872048
0.23999999 3.984446 2.4854288
1.4039088 4.0250001 2.4852936
1.7225697 4.0250001 2.4820249
2.5596402 4.0250001 2.4822953
3.1998222 4.0250001 2.4875891
3.5008011 4.0250001 2.481544
3.6594248 4.0250001 2.4828279
3.7665424 4.0250001 2.4808202
3.8272047 4.0250001 2.4835062
3.9295058 4.0250001 2.4892144
4.7413383 4.0250001 2.4876659
4.9217176 4.0250001 2.4844162
5.2809362 4.0250001 2.4802566
5.3953886 4.0250001 2.4817941
5.4225416 4.0250001 2.4814043
7.7199688 4.0356374 2.4892733
1.9984014e-15 4.0573206 2.4884188
1.7750442 4.1399999 2.4875398
1.8547235 4.1399999 2.4887261
2.1031463 4.1399999 2.4895821
2.6044588 4.1399999 2.4849284
2.9126358 4.1399999 2.4870052
3.0468364 4.1399999 2.4891438
3.7528691 4.1399999 2.4831414
4.0586362 4.1399999 2.4801579
4.2076659 4.1399999 2.4827321
4.418272 4.1399999 2.4881918
4.4984398 4.1400003 2.4820862
5.0122013 4.1399999 2.4899673
5.0517435 4.1399999 2.4890928
0.10354656 4.1750002 2.4800055
7.7199688 4.1939626 2.4839587
7.7199688 4.2245979 2.4857283
7.959969 4.4405675 2.4809418
5.4649692 4.4669175 2.4828756
5.3499689 4.4724445 2.4829829
7.7199688 4.4728937 2.4834447
5.4649687 4.5928526 2.4882421
7.9599686 4.7373109 2.4866858
7.7199688 4.7502508 2.4833436
5.3499689 4.878828 2.4835443
5.4649687 4.875042 2.4865918
5.3499689 4.9255481 2.4815507
7.9599686 4.9664631 2.4873762
7.7199688 5.0063248 2.4863882
7.9599686 5.0298858 2.4812565
0.11841356 5.1050005 2.4858427
5.3499689 5.2024837 2.4828525
7.7199688 5.2214932 2.4891169
1.2411752 5.2399998 2.4860439
1.6146264 5.2400002 2.4895811
1.8110814 5.2399998 2.483741
1.8578569 5.2399998 2.486325
2.2271123 5.2399998 2.4879322
2.4745271 5.2399998 2.4806123
2.6414433 5.2399998 2.4826782
3.0532265 5.2399998 2.4879668
3.0871341 5.2399998 2.4819682
3.5096176 5.2399998 2.4813392
3.8886185 5.2399998 2.488574
3.9238858 5.2399998 2.4808121
4.1110625 5.2399998 2.4803302
4.3697014 5.2399998 2.481565
4.7036152 5.2399998 2.4833014
4.8062835 5.2399998 2.4858077
4.8466272 5.2399998 2.4819281
5.2807159 5.2399998 2.4874256
5.7440844 5.2399998 2.4827838
5.7672224 5.2399998 2.4853215
6.065599 5.2399998 2.4820852
6.0952616 5.2399998 2.4838483
6.3612728 5.2399998 2.4885192
7.5199733 5.2399998 2.4850376
7.7199683 5.2573667 2.4869456
0.38184279 5.355 2.4898846
0.66360027 5.3550005 2.4887922
0.74286473 5.355 2.4827342
0.805305 5.355 2.4800937
0.90704638 5.355 2.4851971
1.1590683 5.355 2.482363
2.1589627 5.355 2.4875147
3.0518577 5.355 2.4852939
3.8004699 5.355 2.4841652
3.9324605 5.355 2.4824281
3.9929621 5.355 2.4816365
4.0503688 5.355 2.4864166
4.9114542 5.3550005 2.4811659
5.0625176 5.355 2.4857435
5.3531594 5.355 2.4839609
7.000546 5.3550005 2.4877601
7.0680323 5.355 2.4899173
7.1370745 5.3550005 2.4814913
7.5382743 5.355 2.4828115
7.6379423 5.3550005 2.4854195
0.23999999 5.3607621 2.4837484
0.23999998 5.4234829 2.4894907
3.9249687 5.4945202 2.4860663
4.039969 5.6176529 2.4802573
1.9984014e-15 5.646338 2.4884002
1.9984014e-15 5.6949844 2.4812307
7.7199688 5.7683687 2.4897151
0.23999999 5.7779078 2.4867802
1.9984014e-15 5.8136625 2.4828892
1.9984014e-15 5.9454899 2.4892013
1.9984014e-15 5.9890623 2.4808979
3.9249687 5.9827476 2.4810543
3.9249687 6.052371 2.4887755
0.23999999 6.1250696 2.481149
4.039969 6.2027407 2.484184
3.9249687 6.2375402 2.4804072
7.7199688 6.2486444 2.4882231
0.23999999 6.3447375 2.4820361
3.9249687 6.3814278 2.4835126
7.9599686 6.4359818 2.4835076
4.039969 6.4496861 2.4804485
7.9599686 6.4662142 2.4811494
1.9984014e-15 6.4947877 2.4847007
3.9249687 6.5278287 2.4849472
7.7199688 6.5329132 2.487833
1.9984014e-15 6.6321526 2.481992
4.039969 6.641511 2.4837718
7.7199688 6.6691065 2.4808517
4.039969 6.6702576 2.4823401
0.24000001 6.7438884 2.4897728
0.23999998 6.8233805 2.4838698
4.039969 6.8473449 2.4866633
0.23999998 6.8526659 2.4807949
4.039969 6.9444203 2.4810145
3.9249687 7.052319 2.4886553
1.9984014e-15 7.0852432 2.482883
4.039969 7.1141791 2.4854729
7.9599681 7.1429057 2.489964
1.9984014e-15 7.182652 2.4850805
7.9599681 7.211072 2.4879818
4.039969 7.2416158 2.4872379
7.9599686 7.2500992 2.4801202
1.9984014e-15 7.2745199 2.4894004
4.0399694 7.2764921 2.4801474
0.23999999 7.3647747 2.48962
1.9984014e-15 7.4076972 2.4892085
4.039969 7.4819713 2.4886618
3.9249687 7.5148196 2.4850886
7.9599686 7.6129422 2.4892988
3.9249687 7.6929436 2.4822657
7.9599686 7.7392483 2.4846759
3.9249687 7.7547989 2.4865797
4.039969 7.8929086 2.4889722
0.23999999 7.9215803 2.4873393
3.9249687 7.9871216 2.4831352
7.9599686 7.9989085 2.4865856
4.039969 8.2359657 2.4882734
7.9599681 8.2542324 2.4844813
7.9599686 8.2654095 2.4819739
4.039969 8.3025036 2.4853933
1.9984014e-15 8.469347 2.4867239
7.7199688 8.4893837 2.4869237
0.23999998 8.49123 2.485518
3.924969 8.553648 2.4884844
0.24000001 8.7049007 2.4876518
4.039969 8.7488756 2.4868298
7.7199688 8.8271503 2.4826446
4.039969 8.8504696 2.4868038
1.9984014e-15 8.8832817 2.4851365
0.23999999 8.8950796 2.4862242
4.039969 8.9396048 2.4883592
7.9599686 9.0597677 2.4811299
3.9249687 9.098506 2.4837935
7.9599686 9.0930214 2.4828672
0.23999999 9.102685 2.4848554
7.9599686 9.1604719 2.4848237
4.2911816 9.1999989 2.4823587
0.37358057 9.1999998 2.4865079
0.79159003 9.1999998 2.4880629
3.0482037 9.1999998 2.4893239
3.2462647 9.1999998 2.4812689
3.4141879 9.1999998 2.4843535
3.6564751 9.1999998 2.4855652
3.6798146 9.1999998 2.4817724
3.6843786 9.1999998 2.4865775
3.7026916 9.1999998 2.4849453
3.8178256 9.1999998 2.4839611
3.8510618 9.1999998 2.4894547
3.9096019 9.1999998 2.489135
4.3468275 9.1999998 2.4833841
4.6463089 9.1999998 2.489773
4.869956 9.1999998 2.4866779
7.7244959 9.1999998 2.4861546
7.7415667 9.1999998 2.4832523
7.7992315 9.1999998 2.4858351
7.8883066 9.1999998 2.4865019
0.23999999 9.2384987 2.4865997
7.019969 9.2642136 2.4852104
0.23999999 9.2763958 2.4850588
4.9899688 9.270896 2.4882793
0.24000001 9.2832432 2.4805436
2.9699998 9.3135204 2.4826508
2.97 9.3338737 2.4884424
0.94 9.3835897 2.4809849
0.15096027 9.4399996 2.485213
0.34149951 9.4399996 2.4889174
0.52553391 9.4399996 2.4843183
0.66271573 9.4399996 2.4866467
2.9702809 9.4399996 2.4859207
3.2203696 9.4399996 2.4826837
4.5473418 9.4399996 2.4823632
4.6186576 9.4399996 2.4821715
4.9899688 9.4392691 2.4876075
7.1612582 9.4399996 2.4809065
7.1975946 9.4399996 2.4838307
7.3386827 9.4399996 2.4891992
7.4383659 9.4399996 2.4823527
7.4608355 9.4399996 2.4865279
7.6938448 9.4399996 2.4823468
7.7931094 9.4399996 2.4805033
0.082357794 0 2.4935966
0.10036132 0 2.4952857
0.69116563 0 2.4903293
2.9347296 0 2.4926226
3.6959243 0 2.4974279
4.2816515 0 2.4908757
4.4063516 0 2.498616
4.6486225 0 2.4922128
4.8287482 0 2.4996688
7.8092728 0 2.4988756
1.9984014e-15 0.015733503 2.499861
7.7199688 0.078215718 2.490267
0.23999998 0.12346111 2.4966505
0.23999999 0.22102951 2.4910452
4.9899688 0.22924533 2.490932
1.9984014e-15 0.24593736 2.4956603
0.34198856 0.24000001 2.4977727
0.81561631 0.24000001 2.4990592
0.930448 0.24000001 2.4967151
1.2694534 0.24000001 2.4983838
1.3481587 0.24000001 2.4910398
1.4142203 0.23999999 2.4934833
1.6670758 0.24000001 2.4918337
3.3706632 0.24000001 2.4922056
3.5066056 0.24000001 2.4926898
3.7028303 0.24000001 2.4930704
3.7330599 0.24000001 2.4975584
4.0185771 0.24000001 2.490808
7.2232704 0.24000001 2.4939303
7.3943701 0.24000001 2.4928036
1.24 0.2689684 2.4901385
1.355 0.32686463 2.4901714
3.6199691 0.33367559 2.4939785
1.24 0.34390062 2.4991024
1.24 0.3842575 2.4949198
7.9599686 0.40997133 2.4924498
1.355 0.4317168 2.4925735
7.7199688 0.47258723 2.4901676
0.24000001 0.48884374 2.4997964
7.9599686 0.51317042 2.4990184
1.9984014e-15 0.53688955 2.499382
7.9599686 0.55707508 2.4935701
3.6199689 0.59877515 2.4967232
7.9599686 0.74411124 2.4910893
3.6199689 0.9273507 2.49647
7.9599686 0.95448506 2.4990709
3.4449689 1.0587716 2.494266
0.23999999 1.080094 2.496351
3.4449687 1.0841509 2.4907548
3.6199691 1.1675322 2.4976373
3.4449687 1.202945 2.4917943
7.7199693 1.2323424 2.4924302
0.23999999 1.2697461 2.4912348
1.24 1.2645792 2.4929926
3.4449687 1.2620265 2.491874
1.355 1.3725382 2.4972079
1.24 1.445132 2.4912279
3.6199689 1.5236712 2.4988916
3.4449687 1.5491453 2.4966729
7.7199688 1.5543877 2.494792
7.9599686 1.5916562 2.494585
7.9599686 1.605713 2.4985425
1.24 1.6147958 2.4986155
1.24 1.6542529 2.4997883
1.355 1.6963296 2.4959297
1.24 1.7346667 2.4930558
0.24000001 1.8218971 2.4985096
1.24 1.824857 2.4999239
7.7199688 1.8592966 2.4905062
7.9599686 1.8557159 2.4984932
0.23999999 1.9518254 2.4962971
0.23999998 1.9758906 2.495254
7.9599686 1.9951086 2.4923444
0.23999999 2.0114055 2.4911284
1.355 2.0357249 2.4967651
3.4449687 2.0637693 2.4955156
7.959969 2.0693493 2.4916608
0.23999999 2.1600511 2.4950626
1.9984014e-15 2.2079852 2.4984434
1.355 2.222537 2.4927101
1.24 2.2464132 2.4946327
1.24 2.3426232 2.4973638
3.6199687 2.350476 2.4961424
7.9599686 2.3694527 2.4921536
1.9984014e-15 2.3835208 2.4922297
0.23999998 2.3819177 2.4914119
3.6199687 2.4061654 2.4916019
7.9599686 2.4599953 2.4939978
3.6199689 2.4876163 2.494144
1.24 2.5070791 2.4991834
7.959969 2.5040524 2.498877
1.9984014e-15 2.5334616 2.4907961
7.9599686 2.6316776 2.4920807
1.9984014e-15 2.6467884 2.4925492
1.2399999 2.677784 2.4955258
3.4449687 2.6987281 2.4953046
7.7199688 2.7249014 2.4992051
1.9984014e-15 2.7563124 2.4998996
1.9984014e-15 2.7679346 2.4965532
7.9599686 2.8089042 2.4997752
3.4449687 2.814924 2.4925275
0.23999998 2.8544738 2.4999967
1.9984014e-15 2.8896792 2.4963126
3.6199689 2.913342 2.4957137
2.7730601 2.9400003 2.4963517
2.9873819 2.9400001 2.4924331
3.4413011 2.9400001 2.4960685
0.24000001 3.0018077 2.4983511
7.7199688 3.0158482 2.4950793
1.9984014e-15 3.0572286 2.4952283
7.9599686 3.0900524 2.4944844
3.6199689 3.1098931 2.4980102
3.2749689 3.1125884 2.4930873
3.6199689 3.1516681 2.4961448
0.23999999 3.1676321 2.4902778
7.9599686 3.1697278 2.4936852
3.6199689 3.2846513 2.4948881
7.9599686 3.3368413 2.4928532
7.9599686 3.359791 2.4917016
3.4449687 3.3647826 2.4935827
1.9984014e-15 3.3821471 2.4991357
3.4449689 3.3843985 2.499187
0.23999999 3.4003866 2.4998088
3.6199689 3.4412298 2.4985497
3.1549687 3.4779389 2.492435
3.6199689 3.4705634 2.4944708
3.2749689 3.5025358 2.4976134
1.2400001 3.5650485 2.4927044
3.2749691 3.623713 2.4968688
1.24 3.6384153 2.4949229
1.355 3.6729429 2.4907348
3.2749691 3.6866131 2.4911308
0.23999999 3.7606413 2.4906588
3.1549687 3.7831943 2.493844
0.23999998 3.8163331 2.4932718
1.9984014e-15 3.8327076 2.4974689
3.1549687 3.8485577 2.4902894
7.7199688 3.8637686 2.4955156
3.6199689 3.8794329 2.4968021
3.4449685 3.9343104 2.4931855
1.9984017e-15 3.940908 2.4975741
3.1549687 3.9443038 2.4986682
3.4449689 3.9666197 2.4985127
0.23999999 4.0291681 2.4982302
2.1324241 4.0250001 2.4997666
2.576668 4.0250001 2.4930134
2.6610732 4.0250001 2.4918075
3.0638781 4.0250001 2.4989481
3.2061784 4.0250001 2.4983125
3.2683675 4.0250001 2.4910998
3.4589953 4.0250006 2.4980874
3.5627327 4.0250001 2.4960148
4.2672009 4.0250001 2.4992962
4.9543262 4.0250001 2.4995456
4.9760232 4.0249996 2.4942226
5.0204372 4.0250001 2.4983587
5.4239626 4.0250001 2.4980154
0.23999999 4.0318346 2.4909418
2.5359607 4.1399999 2.492902
3.0959148 4.1399999 2.4992149
3.118216 4.1399999 2.4970238
3.89972 4.1399999 2.4946146
5.308145 4.1399999 2.4979978
5.3100162 4.1399999 2.4930861
5.352849 4.1399999 2.4952176
5.4157567 4.1399999 2.4940965
5.3499689 4.2115326 2.4900255
7.7199688 4.2276464 2.4908216
5.3499689 4.2408438 2.4914932
5.4649687 4.2583098 2.4991379
5.3499689 4.3061318 2.4962087
5.3499689 4.5300388 2.4969382
5.3499689 4.6325288 2.4990416
5.3499689 4.6591711 2.4914811
5.4649687 4.8314605 2.4924455
7.7199688 5.0169601 2.4915419
7.9599686 5.086729 2.4913416
7.9599686 5.2254868 2.4932475
0.39268196 5.2399998 2.4918065
0.53198099 5.2399998 2.4956336
1.4050202 5.2399998 2.4957778
1.4439694 5.2399998 2.4913645
1.6680554 5.2399998 2.490871
1.9061234 5.2399998 2.4915659
2.3921661 5.2399998 2.4976401
2.4618278 5.2399998 2.4935253
2.6311824 5.2399998 2.4913936
2.7798119 5.2399998 2.496573
2.9990916 5.2399998 2.4965978
3.6453938 5.2399998 2.4938545
3.6886072 5.2399998 2.4908538
3.7174377 5.2399998 2.4922295
4.3565989 5.2399998 2.4911375
4.5963402 5.2399998 2.4903977
4.7290416 5.2399998 2.4978676
5.1514091 5.2399998 2.4946749
