# .PCD v0.7 - Point Cloud Data file format
VERSION 0.7
FIELDS x y z
SIZE 4 4 4
TYPE F F F
COUNT 1 1 1
WIDTH 1615
HEIGHT 1
VIEWPOINT 0 0 0 1 0 0 0
POINTS 1615
DATA ascii
3.5249691 4.6401749 2.2943406
7.8899689 4.7353883 2.297596
1.855 4.8210592 2.2951107
6.6613381e-16 4.8465447 2.2965293
3.6399689 4.8473735 2.2926176
0.24000001 4.8543248 2.2906518
7.8899689 4.8717256 2.2982121
1.74 4.8844624 2.2900748
1.0759486 4.9000001 2.2907183
1.3196614 4.9000001 2.2971749
1.4536291 4.9000001 2.2911155
1.8810514 4.9000001 2.2947788
3.5776017 4.9000001 2.2907138
7.8899689 4.9089284 2.2952704
7.6499681 4.9242702 2.2959383
3.6999688 4.9577599 2.2952163
6.6613381e-16 4.9710631 2.2987063
0.24000001 4.9870043 2.2929294
1.9249687 5.0178761 2.2954769
2.8249688 5.0534472 2.2975755
0.23999999 5.0930591 2.294188
2.8249688 5.1138897 2.2994487
6.6613381e-16 5.1430988 2.2904599
0.92028493 5.1399999 2.2954521
1.5273634 5.1399999 2.2985568
1.6210276 5.1399999 2.2959962
2.9507823 5.1399999 2.2918308
3.0802267 5.1399999 2.2908931
3.5249689 5.1598034 2.2975316
7.8899689 5.1765924 2.299444
0.23999999 5.2052259 2.2922146
3.5249686 5.2103028 2.2949345
7.8899689 5.4279785 2.2931168
7.6499691 5.5099087 2.2990029
3.5249689 5.5773439 2.2915163
7.8899689 5.5982661 2.2947667
3.6999688 5.6189995 2.2970028
3.5249686 5.6669397 2.2970166
3.5249689 5.7202468 2.2965369
6.6613381e-16 5.7642355 2.2917192
3.6999688 5.7669234 2.290401
6.6613381e-16 6.0295105 2.2956848
3.6999688 6.0621376 2.293041
7.8899689 6.1584277 2.2939613
3.5249689 6.1851015 2.2910366
3.6999688 6.2324295 2.2948608
7.8899689 6.3031654 2.2915919
0.24000001 6.6118064 2.295877
3.5249686 6.802011 2.2986455
3.6999688 6.8002486 2.2942464
3.5249689 6.810822 2.2977762
7.6499691 6.8139229 2.2907391
7.8899689 6.8244772 2.2948711
3.5249689 6.8872375 2.2983923
6.6613381e-16 6.8998318 2.2940705
0.23999999 6.9175792 2.2971449
3.5249689 6.922955 2.2928724
7.8899689 6.9666018 2.2948904
7.6499691 6.9769473 2.2950201
0.24000001 6.9809275 2.2925358
6.6613381e-16 7.3417068 2.2977421
3.6999688 7.355998 2.2959657
7.6499681 7.4200134 2.2949708
3.5249689 7.6070328 2.2927845
0.85411268 7.665 2.2952604
0.94944954 7.665 2.292284
1.3370186 7.665 2.2978106
1.4519701 7.665 2.2984049
1.7234174 7.665 2.2968035
2.7326891 7.665 2.2916687
2.8188059 7.665 2.299124
2.8721414 7.665 2.2930501
0.23999999 7.6939597 2.2908049
0.33376068 7.7800007 2.293
1.4923339 7.7799997 2.2958322
1.9765251 7.7800007 2.2924213
2.0771163 7.7800007 2.2981453
2.4397235 7.7800007 2.2913799
2.8163021 7.7800002 2.2982278
3.0384581 7.7800007 2.2905512
3.3270063 7.7800002 2.2977474
3.6999688 7.8618197 2.2980933
3.6999688 7.9344072 2.2955687
7.6499686 8.0096025 2.2998967
0.23999999 8.0303535 2.2921391
3.5249689 8.2122536 2.2948701
7.6499691 8.3069 2.2965279
3.5263186 8.5 2.2960794
7.8899689 8.5176201 2.2997239
0.24000001 8.576932 2.2974639
7.8899689 8.5820723 2.2934501
7.8899689 8.6407032 2.2952251
7.6499681 8.7941475 2.2997897
0.23999998 8.8032732 2.2919798
7.6499686 8.8118849 2.2907031
0.24000001 8.9441004 2.2949672
6.6613381e-16 9.0509539 2.2936401
7.8899689 9.0919685 2.2977974
6.6613381e-16 9.1538391 2.2920954
7.6499681 9.3528538 2.2933815
3.5249689 9.4169331 2.2937033
3.5249689 9.5138721 2.291194
6.6613381e-16 9.5381298 2.2966599
6.6613381e-16 9.6568518 2.2960417
7.8899689 9.6956835 2.2941775
7.8899689 9.7129965 2.290041
7.6499691 9.8198757 2.2948847
6.6613381e-16 9.8454647 2.2985969
7.6499686 9.850173 2.2963071
7.8899693 9.9625473 2.2985179
0.23999998 10.003169 2.2908552
0.23999999 10.052179 2.2987807
0.23999998 10.060304 2.2975521
3.5249691 10.080418 2.2983444
3.6999688 10.106294 2.2927785
7.6499681 10.120862 2.2946405
0.23999999 10.195243 2.2903326
0.54682958 10.2 2.2928977
1.0041896 10.2 2.2936559
1.4386739 10.2 2.2930584
2.2752502 10.2 2.2969666
3.6564455 10.2 2.2935634
5.0261884 10.2 2.2977369
5.1038442 10.2 2.2920589
5.6291533 10.2 2.2935319
5.8612704 10.2 2.2973652
6.0044174 10.2 2.2949886
6.2300467 10.2 2.2918172
6.9584818 10.2 2.2942214
7.0984759 10.2 2.298594
7.8899689 10.272405 2.2923715
7.6499686 10.282009 2.2962399
2.5549688 10.38442 2.2980063
7.1150227 10.439999 2.2982678
6.6613381e-16 10.448084 2.2933154
0.31516191 10.440001 2.2903721
0.74000031 10.44 2.2925565
1.140424 10.44 2.2967031
1.452032 10.44 2.2937298
1.5302531 10.44 2.2953389
1.6330869 10.44 2.2994792
2.2347808 10.440001 2.2966723
3.5714111 10.44 2.2994437
3.6956916 10.44 2.2999897
3.7418973 10.44 2.2915573
5.5816631 10.44 2.2955222
5.8209171 10.44 2.2919116
3.6999688 10.468182 2.2918179
0.23999999 10.47198 2.2925162
7.6499691 10.529548 2.2953377
3.6999688 10.538398 2.2979538
0.24000001 10.596321 2.2910442
7.8899689 10.597884 2.2997153
7.8899689 10.617846 2.2984333
3.5249689 10.628829 2.2932572
7.8899689 10.725066 2.2987454
3.6999688 10.740601 2.2914095
6.6613381e-16 10.754841 2.2974124
3.5249689 10.764684 2.2979224
0.23999998 10.806725 2.2953548
7.8899689 10.829773 2.2975426
6.6613381e-16 11.134829 2.2997296
7.8899689 11.332327 2.290163
7.6499691 11.384462 2.2973089
0.23999999 11.407335 2.2925839
7.6499691 11.517469 2.2982321
0.23999999 11.596663 2.2986021
3.5249691 11.677105 2.2981944
3.6999688 11.714536 2.2976332
6.6613381e-16 11.914861 2.2934337
3.5249686 12.00927 2.2987115
3.6999688 12.064812 2.2920008
3.6999688 12.072478 2.2975576
3.5249689 12.15028 2.2931907
7.8899689 12.213156 2.2996299
7.8899689 12.234571 2.2948818
7.6499686 12.3665 2.2943604
7.6499686 12.458434 2.2914577
6.6613381e-16 12.478758 2.2984097
3.6999688 12.571463 2.2975841
3.6999688 12.689688 2.2930357
3.5249689 12.705538 2.2917941
7.6499686 12.753399 2.2970412
3.5249689 13.041014 2.2952919
0.23999998 13.14958 2.2970834
7.6499691 13.161077 2.2962258
1.8133234 13.199999 2.2943385
2.7775159 13.199999 2.2970877
7.1221914 13.199999 2.2930329
7.7279553 13.199999 2.2909389
0.010147634 13.2 2.2950807
0.16319984 13.2 2.2967732
1.9514087 13.2 2.2989275
2.6337771 13.2 2.2903938
3.5262213 13.2 2.2944751
3.6789851 13.2 2.2987556
3.7416124 13.2 2.2994134
4.3004022 13.200001 2.2914202
4.609746 13.200001 2.2954288
6.1749687 13.208326 2.295886
7.8741045 13.2 2.296236
5.3449688 13.216949 2.2972031
0.42500001 13.33445 2.2971883
7.8899689 13.406773 2.2957962
0.42500001 13.42841 2.2973633
3.3608928 13.439999 2.2949977
4.2977047 13.439999 2.2922101
0.024632104 13.44 2.2943239
1.3747283 13.440001 2.2998834
1.5676267 13.440001 2.2926919
1.7102439 13.440001 2.2939184
1.8772275 13.44 2.2942109
1.8836782 13.44 2.2978082
3.1314526 13.44 2.2910292
3.4694805 13.440001 2.2910242
3.5150836 13.440001 2.291491
3.7328298 13.44 2.2956369
3.7462206 13.44 2.2997673
4.2029591 13.440001 2.2930112
4.6019888 13.440001 2.2998402
6.6722479 13.44 2.2915969
7.201489 13.44 2.2983403
7.8113074 13.440001 2.2998247
0.52360129 6.2172489e-15 2.3019876
3.0015197 6.2172489e-15 2.307919
3.5376129 6.2172489e-15 2.3026648
3.7054009 6.2172489e-15 2.3044252
3.8075604 6.2172489e-15 2.3069739
7.547637 6.2172489e-15 2.306026
7.8122253 6.2172489e-15 2.3033919
4.1091051 0.011045884 2.3
3.8346586 0.026383553 2.3
4.0929918 0.026719013 2.3
3.8753102 0.047838379 2.3
4.034441 0.049872492 2.3
3.9572408 0.068080455 2.3
4.1699686 0.076320872 2.3098826
4.0460758 0.081352726 2.3
3.9229674 0.098365843 2.3
7.9599686 0.12199865 2.3000982
3.8886445 0.13121726 2.3
7.9599686 0.14330198 2.3011928
0.70999998 0.15460168 2.3086922
3.8778856 0.16282955 2.3
4.0328631 0.16288505 2.3
3.9169188 0.19749878 2.3
3.9573658 0.19868386 2.3
4.1097617 0.19803306 2.3
4.1136827 0.19426794 2.3
0.61344194 0.24000001 2.3009062
3.4738479 0.23999999 2.3030207
7.284729 0.23999999 2.3081882
7.4665909 0.24000001 2.3016858
0.078192845 0.27500001 2.3042274
0.17072117 0.27500001 2.3070703
7.6499686 0.30165753 2.3002641
7.8899689 0.32521492 2.3070712
7.6499681 0.34917253 2.3065693
7.6499686 0.41851461 2.3019874
7.6499691 0.52529633 2.3082569
3.6999688 0.66827077 2.3042419
3.5281255 0.68000001 2.303834
7.8899689 0.72746027 2.3041515
7.6499686 0.76215291 2.3055968
7.6499681 0.89325762 2.3009746
7.8899689 0.94827026 2.3017204
0.05196001 1.2049999 2.3075993
0.17531309 1.205 2.3063989
7.6499686 1.2392706 2.3043377
3.5249686 1.6287909 2.3061392
6.6613381e-16 1.6649437 2.3061016
0.23999998 1.7921298 2.3020201
7.8899689 1.8600008 2.3055241
3.6999688 1.8746209 2.3064647
7.6499686 1.967382 2.3006389
3.5249689 2.0617523 2.3085668
3.5249689 2.0908883 2.3083062
6.6613381e-16 2.1464515 2.3005135
0.23999999 2.1907723 2.306721
3.5249689 2.2291324 2.3055005
0.24000001 2.290453 2.3010631
0.23999999 2.3402662 2.3085084
0.23999999 2.454571 2.3021066
0.24000001 2.5113316 2.3077722
3.5249686 2.5297508 2.3042889
7.8899689 2.5931354 2.3035862
7.8899689 2.6322365 2.3098547
3.6999688 2.6475558 2.3016653
7.8899689 2.6471772 2.3006926
6.6613381e-16 2.6557629 2.3092003
7.6499686 2.6659012 2.3077979
7.6499686 2.6808941 2.3058295
7.8899689 2.7158797 2.3037045
3.5249691 2.8401232 2.3038878
6.6613381e-16 2.9507966 2.3030326
0.24000001 3.1046462 2.302289
6.6613381e-16 3.2355142 2.3079131
6.6613381e-16 3.2774892 2.3072598
7.6499681 3.3477147 2.303091
7.6499686 3.378629 2.3059244
3.6999688 3.540009 2.3095284
3.5249689 3.723587 2.309936
0.24000001 3.7722888 2.3085251
1.2974999 3.787981 2.3017991
1.60105 3.7850001 2.3024976
1.855 3.8827171 2.3011451
1.387321 3.9000001 2.3029883
3.6399689 3.9200251 2.3059824
3.6399686 3.9584773 2.303591
0.23999998 3.9938064 2.3035135
0.23999999 4.1485996 2.3099804
0.24000001 4.2531714 2.3057995
0.23999998 4.3115549 2.3061275
7.6499686 4.3609524 2.309711
7.8899689 4.3749022 2.3039596
0.24000001 4.4661303 2.3093269
7.8899684 4.4839392 2.3039782
3.6399691 4.5481453 2.3041396
3.6399689 4.6155787 2.3027875
3.5249689 4.6843662 2.3012009
6.6613381e-16 4.8098946 2.3097365
1.74 4.808125 2.3085365
6.6613381e-16 4.8194237 2.306268
7.8899689 4.8200021 2.3090572
7.8899689 4.8791261 2.3063092
0.25830945 4.9000001 2.3043635
0.81932807 4.9000001 2.3089857
0.83847374 4.9000001 2.3046293
1.2243232 4.9000001 2.3006549
1.5664057 4.9000001 2.3007784
1.7890873 4.9000006 2.3016348
1.8469378 4.9000001 2.3091042
3.3975396 4.9000001 2.3003473
3.598063 4.9000001 2.3058944
7.6499681 4.9219737 2.305984
0.23999998 4.9406285 2.3036339
6.6613381e-16 4.9697723 2.3085432
3.6999691 5.0570364 2.3038802
0.69213939 5.1399994 2.3033662
2.8249688 5.1341515 2.3055592
0.46685582 5.1399999 2.3063171
0.91848415 5.1399999 2.3012471
1.8928536 5.1399999 2.3075585
2.9596813 5.1400003 2.3032775
3.2816014 5.1399999 2.3096707
3.5515316 5.1400003 2.3085876
3.6999688 5.1543927 2.3047507
6.6613381e-16 5.2655916 2.3021445
7.8899684 5.3479671 2.3030663
3.6999686 5.3850636 2.3052747
3.5249686 5.4812431 2.3095777
6.6613381e-16 5.5418148 2.3066239
7.6499686 5.5444126 2.3096726
0.23999998 5.6296387 2.3079853
3.5249689 5.6728239 2.3013251
7.6499691 5.6792803 2.3017349
3.6999688 5.7278252 2.3086431
6.6613381e-16 5.8702774 2.3047049
6.6613381e-16 5.96838 2.3040993
7.6499681 6.0838356 2.3046629
3.6999686 6.1035929 2.3081615
3.6999688 6.116724 2.3096108
0.23999998 6.2429762 2.3049402
3.6999688 6.4350281 2.3093555
0.24000001 6.6385441 2.3064957
3.5249689 6.8551197 2.3092904
6.6613381e-16 6.9523673 2.3049695
3.6999688 6.9647894 2.308506
6.6613381e-16 6.9710417 2.3091052
0.23999998 7.196455 2.3081474
7.8899684 7.2294388 2.3075643
3.5249689 7.2469349 2.3025265
6.6613381e-16 7.2550659 2.3088107
1.3976495 7.665 2.3015254
1.7024827 7.665 2.3069305
2.2240279 7.665 2.3016651
2.3539953 7.665 2.308233
2.5256438 7.6649995 2.3065779
2.7694988 7.665 2.3007345
3.2525806 7.665 2.3007438
3.4673274 7.665 2.3046534
0.23999998 7.7174425 2.3084941
6.6613381e-16 7.7409177 2.3042943
7.8899689 7.75983 2.3070104
0.54757541 7.7800002 2.3068769
0.58002621 7.7800002 2.3060541
1.0964774 7.7800002 2.3051136
1.7149217 7.7799997 2.3052883
2.1699967 7.7799997 2.3012111
2.7947936 7.7800002 2.3095345
2.995198 7.7800002 2.3031306
3.5107424 7.7800002 2.3023076
3.5249689 7.8150959 2.3030579
6.6613381e-16 7.8918734 2.304698
3.6999688 8.0034008 2.3086419
0.23999999 8.1737108 2.3048391
3.6999688 8.2389908 2.3068476
7.8899689 8.2353411 2.3041334
3.6999688 8.2438707 2.308902
3.6999688 8.2631092 2.3016474
3.5249689 8.2759123 2.3018801
0.23999999 8.3843203 2.3037133
6.6613381e-16 8.4321871 2.3081863
6.6613381e-16 8.44063 2.3074875
0.23999999 8.6264715 2.3035598
7.8899689 8.7336779 2.3018448
0.23999998 8.7655115 2.3036063
6.6613381e-16 8.7899313 2.3064344
0.23999998 8.8753061 2.3084989
0.24000001 8.9835091 2.3087986
7.6499691 8.9982586 2.3044415
7.6499681 9.2225885 2.3075304
3.5993114 9.3999996 2.3047991
7.8899689 9.4584551 2.3043838
6.6613381e-16 9.5301819 2.3093545
6.6613381e-16 9.5800295 2.3073304
3.6999688 9.6443071 2.3061862
3.5249686 9.6627769 2.3085678
7.8899689 9.7309313 2.3089693
6.6613381e-16 9.8041649 2.3017468
7.8899689 9.9511242 2.3096435
0.24000001 9.9642715 2.3093896
7.8899689 9.9784317 2.3089812
3.6999688 9.9840078 2.305192
0.24000001 10.065724 2.3001952
3.5249689 10.137777 2.3066854
0.73360795 10.199999 2.3013616
0.91657579 10.200001 2.3016565
1.1962242 10.2 2.3024964
1.8842189 10.2 2.30022
1.8975203 10.2 2.3085544
2.1863494 10.2 2.3095016
2.2186172 10.2 2.3010106
3.7873483 10.200001 2.3023076
3.8035605 10.200001 2.3024518
5.2401137 10.2 2.3055062
5.4696226 10.2 2.3073447
5.8988485 10.2 2.3066487
6.0084286 10.2 2.3018003
6.4914913 10.2 2.3025858
6.8653107 10.2 2.3098469
7.8899689 10.248343 2.3042052
7.6499691 10.307486 2.3002434
4.8999686 10.343653 2.3008173
0.23999998 10.369629 2.3013883
7.6499686 10.376682 2.305063
0.23999999 10.390734 2.3045015
0.23999999 10.431135 2.3070734
1.9903181 10.439999 2.305198
5.3350377 10.439999 2.3048296
6.2119689 10.439999 2.3086848
6.8789263 10.439999 2.3051875
0.95398122 10.44 2.3048348
1.2798712 10.44 2.3009281
1.4731443 10.44 2.3021889
1.5035729 10.44 2.3053555
1.5306494 10.44 2.3010409
5.517312 10.440001 2.3036141
6.5266848 10.44 2.3098073
7.5170388 10.44 2.3082085
6.6613381e-16 10.451341 2.3030009
7.8899689 10.501469 2.3038239
7.8899689 10.527618 2.3040309
0.24000001 10.562861 2.3087778
3.5249689 10.561736 2.3086846
7.8899689 10.56072 2.3080676
6.6613381e-16 10.611369 2.3094723
3.6999688 10.660326 2.3045034
3.5249686 10.743328 2.300981
6.6613381e-16 10.82228 2.3097312
6.6613381e-16 10.950835 2.308326
3.6999688 11.008976 2.307019
3.5249686 11.095496 2.3051271
7.6499686 11.219814 2.3029635
0.23999998 11.294613 2.3087792
6.6613381e-16 11.304376 2.3053377
3.5249689 11.346236 2.3037455
7.6499681 11.376619 2.3019974
7.6499686 11.55418 2.3072534
3.5249691 11.586565 2.3034017
0.23999999 11.634415 2.3012807
6.6613381e-16 11.664838 2.3083634
7.6499691 11.832026 2.3004618
6.6613381e-16 11.924104 2.3034344
7.6499686 12.098928 2.3059688
6.6613381e-16 12.11606 2.3069258
7.8899689 12.135476 2.3020418
3.6999688 12.17708 2.3015411
6.6613381e-16 12.180376 2.3075929
7.8899689 12.209499 2.3024771
6.6613381e-16 12.226446 2.3022914
7.6499691 12.22166 2.3015699
0.23999999 12.252299 2.3076634
0.23999999 12.351171 2.3039563
7.6499686 12.380138 2.3077097
0.15002018 12.515 2.3036439
7.6499681 12.51653 2.301389
7.6499691 12.556826 2.3087537
3.5249689 12.566358 2.3096745
3.5249689 12.667427 2.300185
3.6999686 12.753826 2.3094182
7.6499686 12.927605 2.307369
7.8899689 12.984029 2.3097587
0.13527213 13.015 2.3016019
0.16475503 13.014999 2.3001781
3.6999688 13.011618 2.3073721
3.6999688 13.051252 2.3003321
7.6499681 13.115465 2.3020003
0.33854997 13.199999 2.300029
1.29198 13.199999 2.3024194
4.5315876 13.199999 2.3046029
1.7259731 13.2 2.3045685
2.5908699 13.200001 2.3035362
2.6392236 13.2 2.300993
2.8069882 13.200001 2.3000407
3.7950542 13.2 2.3047919
4.0045462 13.2 2.307435
4.2309098 13.2 2.3017883
4.6450391 13.2 2.3013113
5.3219752 13.2 2.3045933
6.4046268 13.2 2.3040764
6.7208347 13.2 2.3008029
6.7318377 13.2 2.3034475
7.333272 13.2 2.3017197
0.42500001 13.279656 2.3067474
5.3449688 13.273149 2.3026664
7.8899684 13.374531 2.3085489
1.9668355 13.439999 2.3098798
0.10079554 13.44 2.3007934
1.3134023 13.44 2.3011982
1.3623236 13.44 2.3048017
2.1167946 13.44 2.3008885
2.6825366 13.44 2.3010464
3.3848138 13.44 2.3077774
4.4326444 13.44 2.3096981
4.6276722 13.44 2.3077426
6.810894 13.44 2.304898
7.8012223 13.44 2.3056169
0.34808448 6.2172489e-15 2.3113194
7.3160744 6.2172489e-15 2.3137944
0.23999999 0.034300618 2.315269
7.9599686 0.064272709 2.3121054
7.9599686 0.073603392 2.3157701
0.23999999 0.081338488 2.3100412
3.8199687 0.13969927 2.3135867
3.8199687 0.17178135 2.3157196
7.9175982 0.23999998 2.3120663
3.0330241 0.23999999 2.3169544
3.3055606 0.23999999 2.3100719
3.5630236 0.23999999 2.3157973
7.5892992 0.23999999 2.3171711
7.8629928 0.23999999 2.3138652
0.040212352 0.27500001 2.3116193
0.063805319 0.27500001 2.3186104
0.072570339 0.27500001 2.3166685
0.14560264 0.27500001 2.3184481
3.5249689 0.3031674 2.3116131
3.5249689 0.32269353 2.3160548
3.5249691 0.3998701 2.3137989
7.8899689 0.43152153 2.3182108
3.6999688 0.44949871 2.3168712
7.6499686 0.4877215 2.3128953
3.5606165 0.68000001 2.3163843
7.6499681 0.75434166 2.3135471
7.8899689 0.87511289 2.313163
7.6499686 0.88054729 2.3100572
7.8899689 1.0407666 2.3115289
7.6499686 1.1159308 2.3134682
6.6613381e-16 1.2431195 2.3168321
3.5249689 1.6389005 2.3128409
0.24000001 1.6783178 2.3143425
0.23999999 1.7853198 2.3186297
6.6613381e-16 1.7915328 2.3152356
7.6499686 1.8442037 2.3159959
6.6613381e-16 1.879163 2.3197658
7.8899689 2.045181 2.3121674
3.5249686 2.3050332 2.3109126
7.6499691 2.487494 2.3158653
3.6999688 2.5624449 2.3161182
3.5249686 2.7186267 2.3169553
3.5249689 2.7417936 2.3117182
3.5249689 2.7618432 2.3116598
7.6499686 2.8302934 2.3171146
3.6999688 2.8758597 2.3108101
7.6499681 2.8805437 2.3124042
6.6613381e-16 3.0024116 2.310154
7.8899693 3.1350939 2.3169546
7.8899689 3.1405661 2.3113146
7.8899689 3.2737713 2.3105674
6.6613381e-16 3.780859 2.3137622
1.6665611 3.7850001 2.3162909
1.8444941 3.7850001 2.3164496
6.6613381e-16 3.8347497 2.3151178
3.5249689 3.849786 2.3177943
1.4243996 3.9000001 2.3185747
1.5924077 3.9000001 2.3169451
1.6567073 3.9000003 2.3109305
3.571908 3.9000001 2.3199334
1.74 3.9708304 2.3119774
7.6499681 3.9926274 2.319463
7.6499686 4.0742283 2.3142292
7.8899689 4.1887345 2.3102448
6.6613387e-16 4.2442131 2.3144214
3.5249689 4.3457775 2.3157783
3.5249689 4.3903956 2.3161249
0.23999999 4.4111342 2.3100665
0.24000001 4.425158 2.3192248
7.6499686 4.4865885 2.3155293
6.6613381e-16 4.5080023 2.3197803
7.8899689 4.6717138 2.3104095
0.24000001 4.7166262 2.3184953
6.6613381e-16 4.7268538 2.3153486
1.8412217 4.7849998 2.3122239
0.23999999 4.835299 2.3147981
6.6613381e-16 4.8422852 2.3188229
3.6399689 4.8957615 2.3168118
1.6976269 4.9000001 2.3191123
1.8222988 4.9000001 2.3155921
3.6999688 5.0463448 2.3164217
1.9249688 5.0636544 2.3111775
0.45519218 5.1399994 2.3105772
3.0469508 5.1399994 2.3106713
3.5721731 5.1399994 2.312742
0.63405675 5.1399999 2.3191707
0.97567695 5.1399999 2.3153124
1.7082626 5.1399999 2.3151743
2.9655743 5.1399999 2.3106167
3.043268 5.1399999 2.3127515
3.1518993 5.1399999 2.3130729
0.23999998 5.3293667 2.3161821
6.6613376e-16 5.3461537 2.3139207
0.23999998 5.4650083 2.3127131
3.5249689 5.4814801 2.3102663
7.8899689 5.5765796 2.3175602
3.5249689 5.6191998 2.3120179
0.24000001 5.64993 2.3195434
6.6613381e-16 5.706471 2.311511
7.8899689 5.7282262 2.3165064
7.6499691 5.7397466 2.3149905
3.5249689 5.8613234 2.3102798
7.8899689 5.8838658 2.3188963
7.6499691 5.9026089 2.3196747
0.23999998 5.9896245 2.318222
0.24000001 6.0916667 2.3183997
0.23999998 6.2823486 2.3160713
0.23999998 6.2959843 2.3137407
7.6499691 6.3127184 2.31359
7.6499681 6.3997908 2.3132451
3.6999688 6.4944644 2.3121045
7.8899689 6.5267363 2.3160028
7.6499686 6.5561028 2.3159463
0.23999998 6.5734243 2.3138497
6.6613381e-16 6.6063881 2.3199334
3.5249691 6.6050501 2.3111701
7.8899689 6.6006432 2.3129082
3.6999688 6.6554928 2.3125257
6.6613381e-16 6.7067347 2.311193
7.6499686 6.753859 2.3195519
6.6613381e-16 6.8047261 2.3109972
7.6499691 6.8225865 2.3170149
6.6613381e-16 6.8414326 2.3100123
7.8899689 6.91715 2.3186045
3.6999688 6.9397154 2.3169639
7.8899689 6.9360013 2.3103249
0.23999999 7.0052443 2.319531
7.6499681 7.0905986 2.3160555
0.23999999 7.3088684 2.3100116
3.5249686 7.3152523 2.3109677
7.8899689 7.3485837 2.3127339
3.6999688 7.375668 2.3106267
3.6999688 7.4516907 2.3195479
0.48794466 7.665 2.31164
0.70360816 7.665 2.3127975
0.91142279 7.665 2.3162434
1.171172 7.665 2.3113258
1.455502 7.665 2.3149457
1.5670555 7.665 2.3151212
1.7794113 7.665 2.3115427
2.2183096 7.665 2.3189592
2.2945638 7.665 2.3128843
2.6076002 7.665 2.3137834
2.7683644 7.665 2.31657
2.9907322 7.665 2.3173733
3.3488886 7.665 2.3186247
3.5002234 7.665 2.3127067
3.5249689 7.6959677 2.3130569
0.23999999 7.7349524 2.3173659
3.5249689 7.7754598 2.3137546
7.8899693 7.7715287 2.3157775
0.91949224 7.7800007 2.3181772
1.746071 7.7799997 2.3130014
3.0942483 7.7800007 2.3108945
0.23999999 7.8674722 2.3141835
3.6999688 7.8677301 2.3189976
6.6613381e-16 7.9783254 2.3178492
0.23999998 8.0040245 2.3126352
0.23999998 8.0211706 2.314714
7.6499686 8.150485 2.3182063
7.8899689 8.3124743 2.3113372
3.5249691 8.3672323 2.3165648
3.5249689 8.4907389 2.3165956
7.6499691 8.5601559 2.3119473
7.6499691 8.7410746 2.3174837
0.23999998 8.8254366 2.3149745
7.8899684 8.8343878 2.3116057
7.6499691 8.8490162 2.3122599
7.8899689 8.8577518 2.3189321
6.6613381e-16 9.1656685 2.3110497
6.6613381e-16 9.3510113 2.3138161
3.5804629 9.4000006 2.3157184
7.6499686 9.4515896 2.3166695
3.6999688 9.4850321 2.3188124
7.8899689 9.5296497 2.3110306
3.6999688 9.570878 2.3118427
3.6999688 9.6096439 2.3125753
3.6999688 9.7316723 2.3126969
3.5249689 9.7685165 2.3129196
0.23999999 9.8110294 2.3195484
7.6499686 9.8421106 2.3154652
6.6613381e-16 9.8999233 2.3133364
3.6999688 9.924408 2.3165245
0.24000001 9.9448166 2.3135948
7.8899689 10.116729 2.3176785
0.23999999 10.187631 2.3183234
1.6893727 10.199999 2.3149049
0.25938338 10.2 2.315836
0.47558624 10.200001 2.315562
0.48497516 10.200001 2.3136225
0.50922936 10.2 2.310914
0.76014137 10.2 2.3165841
0.95002198 10.2 2.3155992
1.986046 10.2 2.3174639
3.6589432 10.2 2.3132105
5.3405504 10.2 2.3123014
6.0045824 10.2 2.3106728
6.1389599 10.2 2.3190732
6.3897099 10.2 2.3159306
7.027298 10.2 2.3138716
3.4549685 10.248681 2.3165333
0.23999998 10.359553 2.3140855
7.6499691 10.388012 2.3151717
7.6499691 10.395916 2.3146458
5.1648049 10.439999 2.3136363
6.3265533 10.439999 2.3171012
0.33930671 10.44 2.3114612
0.37062413 10.440001 2.3136499
0.42983934 10.44 2.317867
0.51704341 10.44 2.3138993
0.52004194 10.440001 2.3107131
0.65745813 10.44 2.3114724
0.78331387 10.440001 2.31442
0.85853827 10.44 2.3187759
0.98246896 10.44 2.3144572
2.0617828 10.44 2.3128493
2.3338969 10.44 2.3128858
5.3439069 10.44 2.3125775
5.6641669 10.44 2.3119705
5.800045 10.44 2.3118095
6.2909861 10.44 2.3178458
6.3739605 10.44 2.3129554
6.6510544 10.44 2.3114715
7.090682 10.440001 2.3118162
7.5830231 10.44 2.3169026
3.5249689 10.458018 2.3170593
7.8899689 10.602966 2.3152556
7.6499681 10.675156 2.3149128
6.6613381e-16 10.724991 2.3191149
0.24000001 10.770414 2.311414
3.6999688 10.778452 2.3102357
7.6499686 10.797013 2.3108401
0.24000001 10.862381 2.3197067
0.23999999 10.901766 2.3187017
7.6499686 10.91292 2.3131921
0.23999998 10.935826 2.3113852
6.6613381e-16 11.011181 2.313987
3.5249689 11.075479 2.3140519
3.6999688 11.111846 2.3167181
7.6499691 11.185913 2.317028
3.5249689 11.234777 2.3140121
6.6613381e-16 11.381237 2.3113432
3.5249689 11.397937 2.3119564
3.5249686 11.468893 2.3111312
3.5249691 11.470288 2.3153825
7.6499686 11.484186 2.3169024
0.23999999 11.633151 2.3189111
0.23999999 11.676465 2.3196373
3.5249691 11.676318 2.3157191
6.6613381e-16 11.739141 2.3178298
3.6999688 11.752756 2.3130414
6.6613381e-16 11.823209 2.31095
0.23999999 11.836349 2.3123465
7.8899689 11.863366 2.3166842
0.23999999 11.998793 2.3108788
0.23999999 12.127167 2.3154356
3.5249689 12.180794 2.3193738
7.8899689 12.186223 2.3180819
0.23999999 12.273676 2.3196602
3.5249689 12.27388 2.3134995
7.8899689 12.278716 2.3176844
6.6613381e-16 12.415924 2.3157377
3.5249686 12.417446 2.317405
0.096071951 12.515001 2.3143499
3.5249691 12.757456 2.3163464
3.6999688 12.929807 2.3149619
7.6499681 12.962663 2.3112764
3.5249689 13.097345 2.3160806
3.5249689 13.114786 2.3134038
3.5249689 13.143845 2.3161688
0.23999999 13.161565 2.3124614
3.5249689 13.171124 2.3176799
3.0532703 13.199999 2.3134432
4.1743054 13.199999 2.3142519
0.024267033 13.2 2.3198755
0.28514317 13.200001 2.3123906
1.46408 13.200001 2.3142605
1.6423142 13.2 2.3159239
2.3576791 13.2 2.3167243
2.4967272 13.2 2.3136833
2.7553453 13.200001 2.3159294
3.5998082 13.2 2.3192098
4.0989275 13.2 2.3116443
4.6354804 13.2 2.3186216
5.1760039 13.2 2.3118722
6.3629236 13.2 2.3171253
6.6531453 13.2 2.3122721
7.766304 13.2 2.3141081
7.8899684 13.255032 2.3115537
7.8899689 13.421704 2.3117056
3.0086682 13.439999 2.3146319
3.9461415 13.439999 2.3107116
6.9679365 13.439999 2.312624
7.5549307 13.439999 2.3174746
7.6642356 13.439999 2.3130598
0.21359043 13.44 2.3190994
1.6808424 13.44 2.3152544
1.9242163 13.44 2.3168874
2.0248501 13.44 2.3157902
4.3139386 13.440001 2.3102996
4.3479128 13.44 2.3197103
5.1610575 13.44 2.3187909
6.4013901 13.44 2.315536
6.5932755 13.44 2.3119996
7.2937775 13.44 2.3156641
0.63801301 6.2172489e-15 2.3266463
2.901561 6.2172489e-15 2.329978
2.9143271 6.2172489e-15 2.3298776
3.63498 6.2172489e-15 2.3247738
7.27601 6.2172489e-15 2.3220596
7.58705 6.2172489e-15 2.3296115
7.6998134 6.2172489e-15 2.3258302
0.70999998 0.094022281 2.3211389
3.8199687 0.096842296 2.3238764
0.24000001 0.131236 2.3266923
2.7900002 0.21086279 2.3278441
6.6613381e-16 0.22429673 2.3282475
2.7899997 0.23454984 2.3218672
3.5310063 0.23999998 2.3224573
0.36705202 0.23999999 2.3228881
3.2728884 0.24000001 2.3281677
7.2867908 0.23999999 2.3219762
7.4924083 0.23999999 2.3224385
7.6667542 0.23999999 2.3249791
7.7209473 0.24000001 2.3205228
0.21819949 0.27500004 2.3217807
3.5249689 0.30908731 2.3263152
7.8899689 0.31401867 2.3234823
3.6999688 0.35462198 2.321774
7.6499686 0.61174643 2.3276653
3.5249689 0.65075713 2.320116
3.6999688 0.65944207 2.3245065
7.8899689 0.99980295 2.3218772
0.23999999 1.2050486 2.322542
7.6499686 1.4176376 2.322228
7.8899689 1.5236948 2.327539
7.6499681 1.5324986 2.3274937
6.6613381e-16 1.5677038 2.3288407
3.527864 1.5799999 2.3208094
3.6999688 1.6059411 2.32481
0.23999998 1.6457535 2.3221602
7.8899689 1.6614404 2.3270669
7.8899689 1.7518317 2.3229375
7.8899689 1.8451483 2.3281887
6.6613381e-16 1.9089017 2.323014
6.6613381e-16 2.0057485 2.3295076
3.5249689 2.0540268 2.3228836
6.6613381e-16 2.1557157 2.3205462
7.8899689 2.1923356 2.3297639
0.24000001 2.3162732 2.3214381
3.5249686 2.3342946 2.320699
6.6613381e-16 2.3568313 2.3272932
6.6613381e-16 2.4148829 2.320905
7.6499686 2.4176714 2.325917
7.6499686 2.4377127 2.3265595
7.6499686 2.5188358 2.3227181
3.6999688 2.5493488 2.3224936
3.5249691 2.6952934 2.3277721
6.6613381e-16 2.818152 2.3261118
7.6499686 2.8772683 2.3236878
6.6613381e-16 3.0076909 2.3251753
3.6999688 3.0218747 2.3281569
3.5249689 3.1041746 2.3259387
3.5249689 3.3278348 2.3237698
7.6499686 3.3593261 2.3262405
7.6499686 3.4274652 2.3286037
3.5249689 3.4503305 2.3231409
6.6613381e-16 3.6728494 2.3218265
6.6613381e-16 3.6928554 2.3277314
0.23999998 3.8151884 2.3255727
1.2975 3.8371694 2.3230975
1.5559951 3.9000001 2.325182
3.6316798 3.9000001 2.3205755
0.23999998 3.940105 2.3277075
1.74 3.9953315 2.3278837
3.5249689 3.9902601 2.3244836
0.23999998 4.1551099 2.3246481
7.6499681 4.1562376 2.3219714
7.8899689 4.1978111 2.3294754
3.5249689 4.4526014 2.3268254
7.6499691 4.469202 2.3217826
7.6499686 4.4909096 2.3282199
0.24000001 4.5221972 2.3218348
7.8899689 4.5463552 2.3295794
7.6499681 4.5925288 2.3248644
3.5249686 4.7072034 2.3250694
3.6399689 4.7882085 2.3232434
6.6613381e-16 4.8337512 2.3207059
0.23999998 4.8899155 2.3228421
1.2455307 4.8999996 2.3241704
1.6352837 4.8999996 2.322582
3.2245154 4.8999996 2.3241653
0.29946366 4.9000001 2.3272474
1.0316503 4.9000001 2.3231931
1.0547348 4.9000001 2.3203518
1.1593881 4.9000001 2.3267183
1.5367359 4.9000001 2.3280897
6.6613381e-16 4.9186678 2.3294661
2.8249688 4.9281588 2.3259363
2.8249688 5.007237 2.3274605
2.8249688 5.0468497 2.3257978
7.6499691 5.0463982 2.3208234
0.23999998 5.0513477 2.3254457
7.6499681 5.0567164 2.3232381
0.32788461 5.1400003 2.3243237
0.43670693 5.1399999 2.3274002
1.2146674 5.1399999 2.3204412
1.5953555 5.1399999 2.3216686
3.2956872 5.1400003 2.326122
0.23999999 5.2886791 2.3232224
0.24000001 5.2937875 2.3216538
7.6499681 5.297658 2.326431
3.5249689 5.3049288 2.3234091
6.6613381e-16 5.4746957 2.3216283
3.5249689 5.5837541 2.3227003
3.5249689 5.610323 2.3263588
0.24000001 5.7214274 2.3256464
7.6499686 5.72539 2.3216431
7.8899689 5.756196 2.3269048
7.6499691 5.7683415 2.3273385
7.6499691 5.8056297 2.3265557
7.6499686 5.8527508 2.3258069
3.6999688 5.8934288 2.3252051
3.5249689 5.9997263 2.3266187
3.6999688 5.9990654 2.325438
7.8899689 6.0226464 2.3219395
6.6613381e-16 6.1992989 2.3227098
7.8899689 6.2360792 2.3282518
7.6499686 6.2674866 2.3202753
7.6499686 6.284039 2.3205376
3.5249689 6.300107 2.3255758
0.23999998 6.4643383 2.3294175
0.24000001 6.537869 2.324698
3.5249686 6.5542216 2.3273935
6.6613376e-16 6.5895414 2.3282557
0.23999999 6.6810231 2.3255451
3.5249689 6.8976307 2.3280482
7.8899684 6.9981608 2.3285961
3.6999688 7.0667677 2.3212776
3.6999688 7.1063938 2.328553
6.6613381e-16 7.1607785 2.3250532
3.6999688 7.1943016 2.323199
7.6499681 7.2866669 2.3236332
7.6499686 7.3445067 2.325798
0.23999998 7.4368234 2.3202658
0.23999998 7.4652252 2.328753
0.23999998 7.4754562 2.3203471
7.8899689 7.4743986 2.3287296
3.6999688 7.4800854 2.3262687
6.6613381e-16 7.5700817 2.3236268
0.28668463 7.665 2.3219366
0.53810048 7.665 2.3257513
0.9131577 7.665 2.3227413
1.0290273 7.665 2.3207896
1.5838848 7.665 2.3266406
1.7148274 7.665 2.3293052
1.8198423 7.665 2.3259854
2.0049624 7.665 2.3212614
2.5557094 7.665 2.3251719
2.7212138 7.665 2.3243108
3.1617486 7.665 2.3212578
3.2105851 7.665 2.3239677
3.4525771 7.665 2.3209853
7.6499691 7.7335925 2.3216128
0.84473979 7.7800007 2.3231804
1.5625277 7.7800007 2.3221557
2.4147015 7.7800002 2.3292212
2.872257 7.7800007 2.320564
3.3223929 7.7800002 2.3274748
3.5249691 7.860466 2.3208022
7.6499691 7.8731408 2.3241692
3.5249686 7.9534664 2.3249683
7.6499691 8.0391502 2.3273172
0.23999998 8.054965 2.3226624
3.5249691 8.124836 2.3257105
3.6999688 8.1388264 2.3299541
3.5249689 8.227891 2.3276045
7.6499691 8.4153023 2.3269882
6.6613381e-16 8.4646978 2.3207285
3.6853907 8.5 2.3254254
0.23999999 8.5257559 2.3250701
0.24000001 8.7289133 2.3200569
7.6499686 8.9460249 2.3255758
7.6499681 8.9699144 2.3297911
7.8899689 9.0279846 2.3230164
6.6613381e-16 9.3188219 2.3202126
7.8899689 9.4513159 2.3221123
3.5249689 9.4884262 2.3290207
7.6499686 9.5006552 2.3248606
3.6999688 9.6186132 2.3238583
6.6613381e-16 9.7165747 2.3232563
3.5249689 9.7223454 2.3255477
3.5249691 9.7525635 2.3252642
3.5249689 9.768034 2.3237147
6.6613381e-16 9.7869005 2.3265858
3.6999688 9.9023247 2.3232946
3.6999688 9.9592342 2.3280582
7.6499681 9.9617453 2.3240812
3.6999688 10.130124 2.3206983
6.6219006 10.199999 2.3203998
0.30536735 10.2 2.3221607
0.5962764 10.2 2.3294458
0.89439791 10.2 2.3228481
1.1127715 10.2 2.3258791
1.6663064 10.2 2.3212998
3.6238937 10.2 2.3235106
4.9168954 10.2 2.3294325
5.8280087 10.2 2.328109
7.2824736 10.200001 2.3279226
7.3174105 10.2 2.3215785
7.6422305 10.2 2.3276355
0.23999999 10.258106 2.3218746
3.4549687 10.253698 2.3285446
7.6499691 10.272974 2.327723
0.24000001 10.35898 2.3231857
0.23999999 10.391854 2.3286414
1.8564467 10.439999 2.3266287
0.23999999 10.447006 2.3244936
0.52814883 10.44 2.3252525
0.53131723 10.440001 2.3269286
1.2720234 10.44 2.3252907
1.350005 10.44 2.3249037
1.5492845 10.44 2.3221424
1.9451692 10.44 2.3289707
2.0331244 10.440001 2.3224547
2.1460395 10.44 2.3249674
3.5722492 10.44 2.3280537
6.0981522 10.44 2.3287339
6.2503204 10.44 2.3275609
6.7171535 10.44 2.3238201
6.9262395 10.44 2.3285327
7.4155807 10.44 2.3215389
7.5322194 10.44 2.3219314
3.5249689 10.491841 2.3290417
3.5249686 10.530369 2.323024
6.6613381e-16 10.703827 2.3274455
3.6999688 10.720974 2.323343
7.6499691 10.780046 2.326561
3.5249686 10.842991 2.3222511
7.8899689 10.854412 2.3220606
7.8899689 10.871693 2.3202593
7.6499691 10.888519 2.3230538
0.24000001 11.079367 2.3200688
7.6499691 11.073844 2.3299322
3.5249686 11.090844 2.328218
3.6999688 11.200105 2.3237782
0.23999999 11.241992 2.3290224
7.6499686 11.427907 2.3219693
7.6499686 11.430593 2.3289764
7.6499691 11.487794 2.3296087
3.6999688 11.561744 2.3287938
7.8899689 11.570088 2.3221214
7.6499681 11.580535 2.3266406
7.8899689 11.854497 2.3291655
3.5249686 11.875215 2.3257561
7.6499686 11.927812 2.3207369
6.6613381e-16 12.016129 2.3206034
6.6613381e-16 12.040026 2.3257394
7.8899689 12.048336 2.3227646
7.6499686 12.119572 2.3202078
3.5249689 12.169156 2.3211164
7.8899689 12.266088 2.3289557
3.5249686 12.325174 2.3287673
6.6613381e-16 12.37027 2.320107
3.5249689 12.625344 2.323652
3.5249689 12.68574 2.3208244
7.6499681 12.682487 2.3227072
3.5249689 12.806522 2.3269854
7.8899689 12.852084 2.3257246
7.6499691 12.900867 2.3221526
0.15185766 13.015001 2.3239591
0.24000001 13.027129 2.3205009
7.6499681 13.108487 2.3290761
6.6613381e-16 13.159677 2.3250098
1.6747904 13.199999 2.3267274
2.5087814 13.199999 2.3221903
1.2975969 13.200001 2.3252921
1.5939939 13.2 2.3270621
1.9553313 13.200001 2.3231075
2.204818 13.200001 2.3233502
3.1107228 13.2 2.3293409
3.3288307 13.2 2.3272412
3.6484993 13.200001 2.3277652
3.9001412 13.2 2.3255153
4.0187159 13.2 2.3203225
4.1010151 13.2 2.3270099
5.2481799 13.2 2.3203838
6.5039034 13.2 2.3230948
6.6327152 13.2 2.3256574
6.6643577 13.2 2.3231747
6.6938343 13.2 2.3257978
7.4910173 13.2 2.3208742
7.7388062 13.2 2.3213828
7.8771739 13.2 2.3255012
7.8899689 13.228798 2.3284402
2.1538327e-14 13.283118 2.324477
5.3449688 13.323182 2.328568
7.8899689 13.402864 2.3202024
4.7875724 13.439999 2.3225384
0.16804944 13.44 2.3278239
1.5407012 13.44 2.325758
1.6219567 13.44 2.3283231
2.2200108 13.44 2.3240957
2.3202307 13.440001 2.3229897
2.776125 13.440001 2.3286381
3.0555835 13.440001 2.3299813
3.0616608 13.44 2.324939
3.2053757 13.44 2.3247657
4.5094233 13.44 2.3292437
4.9608355 13.44 2.3231385
6.2679043 13.440001 2.3218074
7.2004051 13.44 2.3216848
7.606204 13.440001 2.3265374
7.7718005 13.44 2.3205266
0.032871749 2.7533531e-14 2.3349042
0.20808677 2.7533531e-14 2.3319588
3.172533 6.2172489e-15 2.3345926
7.3588371 6.2172489e-15 2.3328562
7.4365692 6.2172489e-15 2.332921
7.5026546 6.2172489e-15 2.3372378
7.857615 6.2172489e-15 2.3300986
4.1699686 0.02512257 2.332562
4.1199689 0.089447618 2.3310902
6.6613381e-16 0.095820285 2.3374155
0.70999998 0.15074207 2.3370914
4.1199689 0.15402037 2.3378503
0.23999999 0.21710531 2.3365223
4.1699686 0.21643069 2.3370097
3.2580302 0.23999998 2.3339002
3.4932933 0.23999998 2.3370349
3.7213972 0.23999999 2.3394952
7.7134089 0.24000001 2.3303595
7.8899689 0.44782853 2.3386981
7.6499681 0.50405705 2.3307037
3.5249689 0.66715187 2.334888
7.6499686 0.68721116 2.3351064
7.8899689 0.96124017 2.3324924
7.8899689 1.0136418 2.3318033
0.10078204 1.205 2.3307254
7.6499686 1.2044033 2.3380172
7.6499691 1.4683074 2.3363805
3.5694995 1.58 2.3379507
3.5249689 1.7187426 2.3370643
0.23999998 1.9349239 2.3354342
6.6613381e-16 1.9569898 2.3306861
7.6499686 1.9628807 2.3399434
3.5249689 1.9754047 2.338896
3.6999686 1.9719929 2.3360682
3.5249689 2.033566 2.3346899
0.23999999 2.0924742 2.3301463
7.8899689 2.1281688 2.3336716
3.5249689 2.2576833 2.3323007
7.6499686 2.2861936 2.3386283
3.5249691 2.4782679 2.3312056
7.6499686 2.4719079 2.3318646
3.5249691 2.4924169 2.3335056
3.6999688 2.6152689 2.3369894
3.5249691 2.6506662 2.3377848
3.6999688 2.687891 2.3398838
7.6499686 2.9221463 2.3384154
7.8899689 2.9230106 2.3367438
7.8899689 2.9816701 2.3352783
0.23999998 3.0081012 2.330086
7.6499686 3.0503664 2.3398764
3.5249691 3.0961864 2.3388128
3.6999688 3.3089488 2.3386025
0.23999998 3.3369274 2.3380759
3.6999688 3.3841786 2.3328605
0.23999999 3.4151502 2.3316512
3.5249689 3.5024972 2.336688
3.5249686 3.5184565 2.3331244
7.8899689 3.6818218 2.3301115
6.6613381e-16 3.7443116 2.3360128
1.6554837 3.7850001 2.3340752
1.8250444 3.7850003 2.3307877
1.855 3.8147867 2.3367779
3.6999688 3.8575828 2.3312736
1.5401013 3.9000001 2.3311703
3.5446334 3.9000001 2.3352089
3.6380956 3.9000001 2.3311303
6.6613381e-16 3.945729 2.3324418
3.6399689 4.0032091 2.3374319
3.6399689 4.0478225 2.3308592
7.6499686 4.1756878 2.3324678
3.6399689 4.2563381 2.3313055
3.5249689 4.3029261 2.3327637
0.23999998 4.3104253 2.3338678
3.6399689 4.3532972 2.3363369
7.8899689 4.3739491 2.3344922
7.8899689 4.6139679 2.3396978
7.8899689 4.6566195 2.3364043
7.6499681 4.6651139 2.3337746
6.6613381e-16 4.7075253 2.3378768
0.23999998 4.7903571 2.3305314
1.855 4.8500695 2.3395886
1.8518982 4.8999996 2.3357143
0.23999998 4.9057369 2.3374662
0.28897002 4.9000001 2.3377781
0.50648111 4.9000001 2.3342142
1.1202004 4.9000001 2.3317585
1.1777487 4.9000001 2.3303242
1.6281118 4.9000001 2.3338668
3.0479629 4.9000001 2.3378422
6.6613387e-16 4.9603748 2.334841
7.6499681 5.0018129 2.3304181
7.6499686 5.0715017 2.335845
0.23999999 5.1248403 2.336267
6.6613376e-16 5.1315842 2.3377688
3.0889828 5.1399994 2.3368099
3.5833073 5.1399994 2.3318222
0.74417895 5.1399999 2.3376946
0.90141732 5.1399999 2.3314085
0.91368926 5.1399999 2.3376999
1.243198 5.1399999 2.339956
1.738605 5.1400003 2.3348877
2.8630631 5.1399999 2.3350427
3.2421777 5.1399999 2.3349826
3.4932358 5.1399999 2.3343005
3.5061591 5.1399999 2.3397169
3.5305052 5.1399999 2.330198
3.5249689 5.1892948 2.3365636
3.5249689 5.2440758 2.3313644
3.5249686 5.2937531 2.3349774
7.8899689 5.3096662 2.3349297
7.6499686 5.3284569 2.3331041
0.24000001 5.3432546 2.3338933
6.6613381e-16 5.5145755 2.3335402
7.6499681 5.626338 2.3391919
0.24000001 5.6444507 2.3305054
3.6999686 5.6720181 2.3391838
7.8899689 5.6738539 2.3330297
6.6613381e-16 5.7306013 2.336551
3.6999688 5.7854977 2.3303523
7.8899689 5.8172913 2.338788
3.5249689 5.911788 2.3365347
6.6613381e-16 6.0066099 2.3313532
7.6499681 6.0913815 2.3303416
7.8899689 6.2197027 2.3363259
6.6613381e-16 6.2279711 2.3399534
3.6999688 6.2453985 2.3329554
6.6613381e-16 6.2578158 2.3372221
7.8899689 6.2657781 2.3336511
7.8899689 6.3531356 2.3375835
6.6613381e-16 6.3602734 2.3300433
3.5249691 6.3748565 2.3394775
0.23999999 6.4674959 2.3302684
6.6613381e-16 6.5426369 2.3360798
0.23999998 6.7162418 2.3350625
3.5249686 6.7466755 2.3379679
7.8899689 6.8081765 2.3388801
3.6999688 6.9245777 2.3391895
7.6499681 6.9696674 2.3328419
6.6613381e-16 7.0721645 2.3395967
6.6613381e-16 7.0923038 2.3385489
7.6499681 7.2384787 2.3304245
0.23999998 7.3998823 2.3374054
7.8899689 7.4183969 2.3362818
6.6613381e-16 7.4892416 2.3302116
7.6499686 7.5825076 2.334837
3.5249691 7.610815 2.3352005
3.5249689 7.628264 2.3386385
0.29031339 7.665 2.3393536
0.38470453 7.665 2.3383343
0.53469241 7.6649995 2.3304427
0.74147713 7.665 2.3382294
0.75399184 7.665 2.3359945
0.86398023 7.665 2.3360729
1.5934592 7.665 2.3370082
2.1360195 7.665 2.3307145
2.5598454 7.665 2.3359706
2.867841 7.665 2.3312411
3.2762065 7.665 2.3372936
3.4194102 7.665 2.3390086
3.5249686 7.668633 2.3366294
0.29274815 7.7800002 2.3325531
0.98681688 7.7800002 2.3350744
1.264115 7.7800002 2.3388906
2.0117075 7.7800002 2.3362122
3.2804079 7.7800007 2.3396893
7.6499686 7.8190374 2.3398151
6.6613381e-16 7.852951 2.3362582
0.23999998 7.9045563 2.3395333
7.6499681 7.938602 2.3314393
3.5249689 8.057745 2.3336117
3.6999688 8.1467142 2.3343103
3.5249689 8.2360525 2.3317099
7.8899684 8.2650557 2.3354237
3.6999688 8.2733879 2.3341768
7.6499691 8.3496466 2.3304853
7.6499691 8.3611202 2.33604
3.6999688 8.3967047 2.3398755
7.6499681 8.4216557 2.3310592
6.6613381e-16 8.4440212 2.3396831
7.6499691 8.4715223 2.3302975
6.6613381e-16 8.5281229 2.3372419
7.8899684 8.5504284 2.3329315
0.23999999 8.6765099 2.3311906
7.8899689 8.7128162 2.3356404
7.6499686 8.8537445 2.3300343
7.6499691 8.995554 2.3394787
6.6613381e-16 9.0751266 2.3363776
7.8899689 9.3280888 2.339396
6.6613381e-16 9.5606127 2.3373585
7.8899689 9.5704536 2.3394337
7.6499691 9.7181683 2.3354278
3.6999688 9.7348709 2.3367591
0.23999999 9.8483 2.3354757
3.5249686 9.9309406 2.3313427
3.5249686 10.014585 2.3337688
6.6613381e-16 10.026696 2.3309789
3.6999688 10.101147 2.333178
3.5249686 10.168399 2.3382168
3.6999688 10.175659 2.3347762
1.7027068 10.199999 2.3396792
0.3419891 10.2 2.3309233
1.4106976 10.2 2.3368988
2.3359039 10.2 2.3380907
2.5549688 10.200986 2.3357353
5.0616474 10.2 2.335216
5.3604541 10.200001 2.33992
5.4843359 10.200001 2.3301055
5.745018 10.2 2.33652
5.8797331 10.2 2.3301129
6.4611816 10.2 2.332546
6.5277691 10.2 2.3362594
6.9017868 10.2 2.336725
7.4623055 10.2 2.333106
7.6161327 10.2 2.3324971
6.6613381e-16 10.211617 2.3364789
7.6499686 10.262337 2.3329444
4.8999686 10.435207 2.334861
6.1437845 10.439999 2.3371215
7.4710288 10.439999 2.3398576
2.0740819 10.44 2.3380058
2.3358407 10.44 2.3349748
3.4731376 10.44 2.331795
4.9334354 10.44 2.3373594
5.1932912 10.44 2.333323
6.1363583 10.44 2.3385031
6.9238958 10.44 2.3310683
7.6130204 10.44 2.3306456
7.8899689 10.445949 2.3319941
3.5249689 10.492067 2.3316123
6.6613381e-16 10.509592 2.3379636
3.6999688 10.53193 2.3394506
3.6999688 10.603586 2.33863
0.23999998 10.718517 2.3346088
7.8899689 10.727 2.3301201
3.6999688 10.848008 2.3369465
3.5249686 10.855433 2.330946
6.6613381e-16 10.872843 2.3378437
6.6613381e-16 11.103473 2.3315601
3.5249689 11.128703 2.3337355
3.5249689 11.206155 2.3301835
0.23999999 11.264326 2.3390806
7.6499681 11.300989 2.3300948
0.23999999 11.391168 2.3354266
3.6999688 11.405371 2.3322468
7.6499681 11.401788 2.3307488
3.6999688 11.564283 2.3361065
3.5249686 11.609712 2.3394444
0.23999999 11.739066 2.3358462
3.5249689 11.768882 2.3325696
7.8899689 11.772244 2.3313684
0.23999999 11.786218 2.330332
7.6499686 11.836344 2.3398838
3.6999688 11.849016 2.3307209
6.6613381e-16 11.877533 2.335556
6.6613381e-16 11.957784 2.3387878
6.6613381e-16 12.027696 2.3337095
3.6999688 12.109967 2.3367314
7.8899689 12.106111 2.3376501
3.6999688 12.137815 2.3337264
3.5249686 12.209184 2.3353598
7.6499691 12.229246 2.3358693
7.6499686 12.295153 2.3352215
0.23999999 12.355586 2.3372321
7.6499686 12.513037 2.3398468
7.6499691 12.710139 2.3355942
3.5249691 12.852073 2.3311682
3.5249689 12.944822 2.3380883
7.8899689 13.035711 2.3372557
3.6999688 13.057382 2.3335989
0.051986851 13.199999 2.3336868
4.7399216 13.199999 2.3331602
4.9708238 13.199999 2.3316739
6.6492906 13.199999 2.3312757
0.27866691 13.2 2.3345284
0.37922519 13.2 2.3381588
1.2864233 13.2 2.330137
1.57521 13.200001 2.3323462
1.591701 13.2 2.3367488
2.0625157 13.200001 2.3357201
2.071034 13.2 2.3376238
3.5057995 13.2 2.3366852
3.5866959 13.2 2.3332889
4.8794198 13.2 2.3399255
6.4017663 13.2 2.3376811
6.4950004 13.2 2.3351815
6.7789459 13.200001 2.3350575
6.9149756 13.2 2.3391845
7.2842574 13.2 2.3379209
7.7502604 13.2 2.3305473
7.8094387 13.2 2.3366642
7.8199425 13.2 2.337616
0.42500001 13.233839 2.3378215
2.1538327e-14 13.25839 2.3322001
1.255 13.255458 2.3307986
6.1749687 13.32864 2.3385844
0.16215651 13.439999 2.3392587
1.8391448 13.439999 2.3360951
3.8448815 13.439999 2.3317044
4.7400484 13.439999 2.3309715
6.3423738 13.439999 2.3324895
7.2820473 13.439999 2.3339891
7.8308268 13.439999 2.3314211
0.196192 13.44 2.3350623
2.999506 13.44 2.3326061
3.4130111 13.44 2.3332419
4.0361462 13.44 2.3387866
4.3914986 13.440001 2.333832
5.1052761 13.440001 2.3339193
5.1778965 13.440001 2.3389928
6.308774 13.44 2.3383825
6.3440142 13.44 2.3348963
6.5591974 13.44 2.3378057
6.6761456 13.44 2.3323908
6.7399769 13.440001 2.330616
6.9743414 13.440001 2.3322468
3.5207763 6.2172489e-15 2.3426676
3.5863943 6.2172489e-15 2.344038
6.6613381e-16 0.01602695 2.3406689
0.24000001 0.099050641 2.3429949
0.70999998 0.19330058 2.3411961
0.23999999 0.21132091 2.3451581
0.34293023 0.24000001 2.3484893
4.1584158 0.24000001 2.3404932
7.7798748 0.23999999 2.344382
7.6499686 0.34284595 2.348455
7.6499686 0.37245029 2.3464141
3.5249691 0.39636576 2.3460906
3.6999688 0.59134644 2.340745
7.6499686 0.81658083 2.3443024
7.8899689 0.94270301 2.3472571
7.6499686 0.95940548 2.3449323
7.6499686 1.0335857 2.3484824
7.8899689 1.1064911 2.3404222
7.6499686 1.1144717 2.3498063
7.8899689 1.1680514 2.3451502
0.036094666 1.205 2.3448367
0.23999998 1.2492416 2.3476019
0.23999998 1.3670144 2.3405623
7.6499691 1.3852872 2.3420198
7.6499686 1.4864297 2.3416607
6.6613381e-16 1.5843517 2.3405609
7.8899689 1.768613 2.3463235
0.24000001 1.9724286 2.3482606
7.6499686 2.0189538 2.341239
7.8899689 2.1038027 2.3470583
3.6999688 2.3723266 2.3461947
7.8899689 2.435776 2.3421443
3.5249689 2.518146 2.3480163
0.23999999 2.5325994 2.3433573
7.8899689 2.5752163 2.3413124
3.5249691 2.8186052 2.3466771
3.6999688 2.9116893 2.3425057
0.24000001 3.0000994 2.340735
7.6499686 3.0987716 2.3472486
7.8899689 3.2149217 2.3492725
3.5249686 3.3974972 2.34903
7.6499686 3.4923341 2.3429093
3.6999688 3.608887 2.3425541
7.6499686 3.6316476 2.3450823
3.5249689 3.6495845 2.3450997
0.23999998 3.6998878 2.34828
7.8899689 3.758208 2.3496265
1.6455572 3.7850003 2.3439019
6.6613381e-16 3.809315 2.3454499
3.5249689 3.83429 2.3456714
1.73736 3.9000001 2.3402264
3.6089926 3.9000001 2.3407021
0.24000001 3.9696422 2.3481297
3.5249689 4.0664291 2.3451023
6.6613381e-16 4.0810909 2.34829
3.5249691 4.0982695 2.3440087
3.6399689 4.091825 2.3479037
6.6613381e-16 4.1237803 2.347651
7.6499681 4.1793342 2.3440747
0.23999998 4.3539305 2.3405941
7.8899689 4.4231858 2.3408055
7.8899689 4.5046782 2.3485641
3.5249691 4.5207319 2.3469112
6.6613381e-16 4.5950694 2.3488922
7.8899689 4.6716061 2.3490653
7.8899689 4.7218876 2.3440099
1.74 4.7921391 2.3485844
3.5249689 4.8295293 2.3477004
6.6613387e-16 4.9044056 2.3468049
1.2451034 4.9000001 2.3480043
1.8159298 4.9000006 2.3479195
2.8919094 4.9000001 2.3462551
3.0931988 4.9000001 2.3477595
3.6774166 4.9000001 2.342947
0.23999998 4.9228306 2.3492103
3.6999688 4.9371152 2.3482728
1.9249688 4.948 2.3419969
0.23999999 4.9677567 2.3436463
1.924969 5.021225 2.3424873
7.8899689 5.0225534 2.3440146
0.23999998 5.0307937 2.3418787
2.8249688 5.1168556 2.3410938
2.987561 5.1399994 2.3435912
1.1158491 5.1399999 2.3495753
1.2917751 5.1399999 2.3480988
1.8176553 5.1399999 2.3416502
3.2709522 5.1399999 2.3410769
3.2877727 5.1399999 2.3419778
3.4956484 5.1399999 2.3442073
3.5527048 5.1399999 2.3463521
7.8899689 5.2128072 2.3411696
7.8899689 5.2248654 2.3441076
6.6613387e-16 5.2500291 2.3438838
7.6499691 5.2705588 2.3482392
6.6613381e-16 5.3486686 2.343606
7.8899689 5.4441719 2.3414793
3.5249689 5.4820719 2.3420031
7.6499681 5.5221004 2.3463016
7.6499681 5.5400701 2.3436542
7.8899689 5.7098255 2.3477597
6.6613387e-16 5.7484851 2.3401742
3.6999688 5.7581444 2.3482089
6.6613381e-16 5.762291 2.3477252
3.6999688 5.837522 2.3451948
7.6499691 5.8645091 2.3459918
3.6999688 5.9592681 2.3477836
3.6999688 5.9632711 2.3488035
7.6499686 6.0568886 2.3484616
7.8899689 6.1175127 2.3468122
7.6499691 6.1433258 2.3407249
7.6499681 6.2183843 2.3494787
6.6613387e-16 6.3238535 2.3466742
3.5249686 6.3377919 2.3456006
3.5249691 6.3798838 2.3473241
7.6499681 6.5185356 2.3439751
3.5249686 6.5367365 2.3470693
7.8899689 6.5464849 2.3471923
6.6613381e-16 6.5808482 2.3493264
7.6499686 6.6822023 2.3465891
3.6999688 6.7303715 2.3478212
0.23999999 6.7592511 2.3481367
7.6499691 6.8292389 2.3485167
7.8899693 6.8416743 2.3442318
3.5249686 6.8830767 2.3471375
7.6499681 7.132575 2.343569
0.23999999 7.1959376 2.3475518
0.23999998 7.2262111 2.3489017
3.5249691 7.2318907 2.3426812
6.6613381e-16 7.2465286 2.3405936
3.5249686 7.3241515 2.3420732
3.6999688 7.3799524 2.3431051
7.6499686 7.3719702 2.3471761
7.8899689 7.4973283 2.3445656
3.6999691 7.5460863 2.3493092
3.6999688 7.5940065 2.3481932
7.8899689 7.6096063 2.3421724
0.98363048 7.665 2.3485968
2.0860033 7.665 2.3470745
2.1690202 7.665 2.345227
2.3694971 7.665 2.3455586
2.5343306 7.665 2.3450916
2.5729823 7.665 2.3498549
2.8653772 7.665 2.3481987
3.2064037 7.665 2.3421347
3.456681 7.665 2.3429129
0.23999999 7.7007041 2.3475437
3.5249689 7.7235079 2.3498566
0.3634991 7.7799997 2.3433642
