# .PCD v0.7 - Point Cloud Data file format
VERSION 0.7
FIELDS x y z
SIZE 4 4 4
TYPE F F F
COUNT 1 1 1
WIDTH 1554
HEIGHT 1
VIEWPOINT 0 0 0 1 0 0 0
POINTS 1554
DATA ascii
3.5249689 8.1286106 0.82097918
7.519969 8.1448774 0.82773614
3.5249686 8.2154331 0.82624859
7.519969 8.2352142 0.82138562
6.6613381e-16 8.2572699 0.82360584
6.6613381e-16 8.3518047 0.82323766
7.7599688 8.3550367 0.82060695
3.5249689 8.4095917 0.82342583
3.525852 8.5 0.82774591
7.519969 8.5524845 0.82270777
7.519969 8.6373749 0.82820559
0.23999999 8.650238 0.82220864
6.6613381e-16 8.7783737 0.82693589
7.5199695 8.9043493 0.82555211
7.7599688 8.9536123 0.82682192
0.24000001 8.9940414 0.82922864
7.7599688 9.3106356 0.82913929
7.519969 9.3637705 0.82356989
3.557992 9.3999996 0.82215083
6.6613381e-16 9.5212278 0.82459426
7.7599688 9.5437355 0.82481933
7.7599688 9.6519995 0.82039046
3.5249691 9.7985315 0.82798088
0.23999998 9.8810654 0.82523423
7.519969 9.915308 0.82082814
7.7599688 9.914794 0.82618159
0.24000001 9.9424763 0.82681048
6.6613381e-16 10.032387 0.82090086
3.5249686 10.035639 0.82443857
7.7599688 10.082104 0.82353812
0.24000001 10.097554 0.82320642
7.7599688 10.133952 0.82218134
3.5249689 10.158962 0.82018828
5.185236 10.199999 0.82453811
0.25944021 10.2 0.8243103
0.51276016 10.2 0.82110566
0.57315105 10.2 0.8268314
1.3233373 10.2 0.82873905
1.4783835 10.2 0.82487661
1.5799922 10.2 0.82413447
1.9372975 10.2 0.82333964
1.9900389 10.2 0.82427216
2.2712169 10.2 0.82481271
4.90734 10.2 0.82236469
5.6482687 10.2 0.82614762
6.6357994 10.2 0.82189101
7.3836207 10.200001 0.82847047
2.5549688 10.256535 0.82704973
3.8199687 10.261259 0.82680029
0.24000001 10.281019 0.82681453
6.6613381e-16 10.309402 0.82272762
7.519969 10.31292 0.82813174
3.8199687 10.359496 0.82473993
7.519969 10.352813 0.82297814
7.519969 10.373135 0.82538593
0.23999999 10.381893 0.82812542
6.6613376e-16 10.415998 0.82058352
0.23999999 10.411777 0.824296
3.8199687 10.415582 0.82669759
7.7599688 10.411145 0.82546997
2.5549688 10.420682 0.82070142
4.8999686 10.437703 0.82359952
0.42318526 10.44 0.82823843
0.98579693 10.44 0.82355791
1.1401275 10.440001 0.82883024
1.3019416 10.44 0.82537377
2.0462871 10.44 0.82667959
4.9542928 10.44 0.82152498
5.035532 10.440001 0.82771772
5.0933237 10.44 0.82271165
5.1232762 10.44 0.82846111
5.7886868 10.44 0.8261798
5.9707851 10.440001 0.82383859
6.1895533 10.44 0.82749188
7.1704011 10.44 0.82896096
7.3754907 10.44 0.82990324
3.5249689 10.485476 0.82011622
3.6999688 10.620018 0.82466382
0.24000001 10.63379 0.82768178
7.519969 10.685377 0.8217206
6.6613381e-16 10.722646 0.8270545
7.7599688 10.803487 0.82441056
7.7599688 10.98989 0.82334077
7.7599688 11.055285 0.82139277
0.23999999 11.063042 0.82523054
7.7599688 11.071892 0.82075524
0.23999998 11.160857 0.82755148
3.6999688 11.162216 0.82813776
3.6999688 11.209279 0.82992256
3.6999686 11.315847 0.82836246
7.7599688 11.354669 0.82675922
7.7599688 11.38404 0.82795966
6.6613381e-16 11.408244 0.82681537
3.6999688 11.605978 0.82989585
0.24000001 11.656348 0.82639158
6.6613381e-16 11.682781 0.82378519
7.519969 11.705164 0.82595181
0.23999998 11.775846 0.82143211
7.7599688 11.897737 0.82799244
3.5249689 11.914009 0.82873064
7.7599688 11.916306 0.82246113
3.6999688 11.988816 0.82424992
3.6999688 12.015205 0.82137585
3.5249689 12.145015 0.82761133
7.7599688 12.244745 0.82035977
7.7599688 12.282066 0.82971632
7.519969 12.308305 0.82613289
0.23999998 12.404643 0.82621098
0.23999998 12.459413 0.82384568
0.24000001 12.454036 0.82987267
0.23999999 12.484329 0.82079786
7.519969 12.56725 0.82793635
7.519969 12.639225 0.82757199
7.519969 12.688089 0.82361388
0.24000001 12.690903 0.82516706
6.6613381e-16 12.752392 0.82202572
7.519969 12.760885 0.82760268
7.7599692 12.94729 0.82130772
3.6999688 12.9564 0.82926512
6.6613381e-16 12.960083 0.82798243
0.23999999 13.001593 0.82470089
0.23999999 13.057237 0.82795846
7.519969 13.125687 0.82801145
3.5249689 13.13803 0.82868463
0.31628031 13.199999 0.82885593
0.53820604 13.199999 0.82079083
0.018230088 13.2 0.82439691
0.025661208 13.2 0.82414019
1.6245648 13.2 0.82842213
3.1988552 13.2 0.8203032
3.7037244 13.2 0.8250457
4.4904518 13.2 0.82378274
5.4678683 13.2 0.82803953
6.4877467 13.200001 0.82109487
6.9812741 13.200001 0.82671762
7.2573876 13.2 0.82178867
7.532104 13.200001 0.82992309
7.7022314 13.2 0.8206144
7.7599688 13.253359 0.82441163
7.7599688 13.315735 0.82900298
2.4532809 13.439999 0.82695711
3.0050364 13.439999 0.8296302
4.5743961 13.439999 0.82766497
4.6696868 13.439999 0.82992446
4.7940245 13.439999 0.82083911
7.5426903 13.439999 0.82845706
0.048685979 13.440001 0.82499844
0.80825371 13.44 0.82011044
1.5767636 13.440001 0.82095075
1.9427662 13.440001 0.82477933
2.3793597 13.440001 0.82080716
2.5862541 13.44 0.82285953
2.7549477 13.44 0.82202047
3.4908702 13.44 0.82926726
4.2256742 13.44 0.82839459
5.0372009 13.440001 0.82075399
6.4070892 13.44 0.82177287
6.5754728 13.44 0.82752198
6.6370082 13.440001 0.82980072
7.6826315 13.440001 0.82643795
0.4724828 6.2172489e-15 0.83341491
2.8615417 6.2172489e-15 0.83810538
2.9737909 6.2172489e-15 0.83665413
3.0133967 6.2172494e-15 0.83102167
3.481806 6.2172489e-15 0.83858174
3.571734 6.2172489e-15 0.83958465
3.6236811 6.2172489e-15 0.83420849
3.6965485 6.2172489e-15 0.83235604
3.7928338 6.2172489e-15 0.83867484
3.8867028 6.2172489e-15 0.83193088
4.0721126 6.2172494e-15 0.83380765
4.1671004 6.2172489e-15 0.83438832
7.4863491 6.2172489e-15 0.8349086
0.23999998 0.15192233 0.83615029
0.6589241 0.23999998 0.83807647
3.458518 0.23999998 0.83954406
3.6902535 0.23999998 0.83214909
4.1120081 0.23999998 0.83244854
7.6863656 0.23999998 0.83422983
3.4451942 0.24000001 0.83426327
3.8980989 0.23999999 0.83479983
3.907167 0.24000001 0.83271897
4.0159645 0.24000001 0.83489335
7.3697891 0.23999999 0.83041769
6.6613381e-16 0.26534235 0.83129901
0.17619468 0.27500001 0.83138967
3.6999688 0.4705013 0.83312887
7.7599688 0.56690031 0.83797956
3.6999688 0.59604573 0.83946538
3.6999688 0.61727381 0.83939642
7.7599688 0.67295516 0.83455187
7.519969 0.840635 0.83859712
7.7599688 1.4761921 0.83224362
3.5985241 1.5799999 0.83363229
3.5249689 1.6893606 0.83558476
3.5249686 1.7782756 0.83148372
7.7599688 1.8069841 0.83122361
7.5199695 1.880686 0.83858329
0.23999999 1.9388362 0.83450103
7.519969 2.0322475 0.83546674
0.24000001 2.0985055 0.83824313
6.6613381e-16 2.2311816 0.83280015
7.519969 2.2540879 0.83297187
3.5249689 2.2813163 0.83325881
6.6613381e-16 2.3851199 0.83959836
3.5249686 2.4169779 0.83146858
7.519969 2.4185498 0.83768272
7.7599688 2.6668808 0.83176696
3.6999688 2.868629 0.83045548
7.519969 3.0551767 0.83049715
7.7599688 3.0765257 0.83555198
6.6613381e-16 3.1672688 0.83210266
3.5249689 3.1708381 0.83675063
7.519969 3.3016922 0.83799171
3.6999688 3.343246 0.83951819
0.23999999 3.4300194 0.83230925
7.519969 3.6284235 0.83998448
3.5249686 3.7024853 0.83373117
3.6999688 3.7482915 0.83767843
6.6613381e-16 3.7607729 0.83630902
0.37693298 3.7850003 0.83105212
0.48749205 3.7850001 0.83677858
0.52450198 3.7849998 0.83565342
0.67994106 3.7849998 0.8375712
0.94738394 3.7850003 0.83691043
1.488729 3.7850001 0.83705443
1.7790936 3.7850001 0.83261245
1.74 3.8291698 0.83802295
0.23999998 3.8542638 0.83833349
1.855 3.8606548 0.83584619
1.7399999 3.8801007 0.83261818
7.7599688 3.8922043 0.83644581
0.29269138 3.9000001 0.8305254
0.35551807 3.9000001 0.83944523
0.48187041 3.9000001 0.83219224
0.51074201 3.9000003 0.83208889
1.0182757 3.9000001 0.83877933
1.3441252 3.9000001 0.83767211
1.6026425 3.9000001 0.83891189
3.6240633 3.9000001 0.83933836
3.6866295 3.9000001 0.8352046
6.6613381e-16 3.9410868 0.83044195
6.6613381e-16 4.077579 0.83381075
6.6613381e-16 4.1414042 0.83804011
0.23999998 4.4046173 0.83977944
7.519969 4.5893683 0.83854139
7.7599688 4.6084733 0.83998609
0.23999999 4.6846833 0.83682561
7.7599688 4.7433968 0.83956325
0.24000001 4.7957692 0.83636802
0.23999998 4.8071599 0.83207232
0.23999999 4.8133035 0.8323071
3.5249689 4.8260169 0.83115298
7.519969 4.8798451 0.83805269
0.51888371 4.9000001 0.83326447
3.188992 4.9000001 0.8357569
6.6613381e-16 4.9280763 0.83618331
0.23999999 4.9346337 0.83956069
7.7599688 5.0160737 0.83531946
7.7599688 5.0618892 0.83353126
1.4975027 5.1399994 0.83932853
0.39526531 5.1399999 0.83776897
1.0060034 5.1399999 0.83083272
1.4741192 5.1399999 0.834005
1.5600926 5.1399999 0.83645171
3.0273969 5.1399999 0.83780855
3.5184274 5.1399999 0.83432603
3.5249689 5.149261 0.83340442
0.23999998 5.1527143 0.83985692
3.6999688 5.2394114 0.83818251
6.6613381e-16 5.2525916 0.83248794
3.5249691 5.2727675 0.83343512
7.7599688 5.3067317 0.83983862
3.5249689 5.322474 0.83633393
7.519969 5.351542 0.83353949
7.7599692 5.4473982 0.83025265
7.7599688 5.4507093 0.83450139
0.23999999 5.4831972 0.83504891
3.5249689 5.8645401 0.83624554
7.7599688 5.922956 0.83878964
0.24000001 5.9676065 0.83665597
0.23999999 6.0021305 0.83697921
7.519969 6.0599747 0.83540815
6.6613381e-16 6.1713562 0.83949453
3.6999688 6.1883087 0.83045214
6.6613381e-16 6.191494 0.83475709
3.6999688 6.2643323 0.83937347
3.5249689 6.3946438 0.83716363
3.6999688 6.5458097 0.83731472
3.6999688 6.6054502 0.83553487
3.5249689 6.637537 0.8310408
7.519969 6.6319895 0.83609396
3.6999688 6.7002845 0.83303618
7.519969 6.7159996 0.83728206
7.7599688 6.7257552 0.83901495
6.6613381e-16 6.7847443 0.83138657
3.5249689 6.8880739 0.83843035
7.7599688 6.8845387 0.83815104
6.6613381e-16 6.9646368 0.83837104
3.6999688 6.9845071 0.83747435
6.6613381e-16 7.1345291 0.83412945
3.6999688 7.1455355 0.83789551
6.6613381e-16 7.1926427 0.83463341
0.23999998 7.243731 0.83799195
0.24000001 7.4288778 0.8326872
6.6613381e-16 7.4525261 0.83704442
7.519969 7.4863591 0.83572823
0.47241467 7.665 0.83389175
1.0687059 7.665 0.83750701
1.1921425 7.665 0.83332843
1.9071989 7.665 0.83894026
2.438817 7.665 0.8304072
2.7857969 7.665 0.83092934
3.1688037 7.665 0.83899093
7.7599688 7.6719599 0.83916581
0.3786369 7.7800007 0.83563012
1.086585 7.7800007 0.83485824
1.1255928 7.7800007 0.83900332
1.4505547 7.7799997 0.83160681
1.6791517 7.7799997 0.83233458
1.7267025 7.7800007 0.83895129
1.8177722 7.7800007 0.83770305
2.713213 7.7800002 0.83797836
3.3820417 7.7800002 0.83038658
6.6613381e-16 7.9489093 0.83068568
3.6999688 7.9485607 0.83519566
0.24000001 8.0343294 0.83984143
7.7599688 8.0522375 0.83753467
3.5249689 8.2364397 0.83751142
7.7599688 8.4038458 0.83433038
3.5562878 8.5 0.83256149
6.6613381e-16 8.6093063 0.83517855
7.7599688 8.6445885 0.83950585
7.7599688 8.7141266 0.83327538
7.519969 9.1765213 0.83388042
3.6999688 9.4271584 0.83640748
3.5249689 9.5161791 0.83338434
7.519969 9.5148392 0.83659875
7.7599688 9.5566578 0.83191007
0.23999999 9.5881357 0.83860022
6.6613381e-16 9.7316427 0.83691829
7.519969 9.8346024 0.83962327
3.5249689 9.8662043 0.83276832
7.519969 10.04802 0.83752328
7.5199685 10.115799 0.83401597
3.6999691 10.18644 0.83800143
5.071032 10.199999 0.83096874
0.34950039 10.2 0.83204341
0.65218228 10.2 0.83866853
0.68438131 10.200001 0.83655852
1.3160558 10.2 0.83176166
1.4173956 10.2 0.83206534
2.3877959 10.2 0.83923948
2.5549688 10.205305 0.83397853
3.5477178 10.200001 0.83828074
3.7284083 10.2 0.8330633
5.6499872 10.2 0.83125675
5.9096045 10.2 0.83380443
6.0197039 10.2 0.83286142
6.5314965 10.2 0.83122534
7.1250587 10.2 0.83520341
7.519969 10.221976 0.83061475
7.519969 10.24401 0.83650863
0.23999999 10.308592 0.83118755
7.7599688 10.352738 0.83054441
7.519969 10.403513 0.83811307
2.4193258 10.439999 0.83255714
3.633152 10.439999 0.83261287
5.964499 10.439999 0.8322345
1.3801831 10.44 0.8374936
2.1342659 10.44 0.83911431
3.6999688 10.449431 0.83097577
3.8023977 10.44 0.83582652
4.9637499 10.44 0.83309746
5.2590261 10.44 0.83051002
5.8516617 10.44 0.83852845
6.1156569 10.44 0.83704466
6.7918963 10.44 0.8380295
6.6613381e-16 10.466591 0.83150131
7.519969 10.542023 0.83228832
7.7599688 10.64908 0.83580709
7.519969 10.661239 0.832358
3.5249691 10.716955 0.8378557
3.5249689 10.735215 0.83690792
3.5249689 10.822117 0.83183801
0.23999999 10.886927 0.83636868
3.5249689 10.973992 0.83491671
7.7599688 11.026916 0.83171481
7.7599688 11.242186 0.83598
6.6613381e-16 11.494257 0.83089221
3.5249691 11.519089 0.83854419
0.23999999 11.562793 0.83294243
7.7599688 11.663597 0.8379485
7.519969 11.743281 0.83613473
3.5249689 11.787029 0.83077377
0.24000001 11.884074 0.83488804
7.519969 11.894769 0.83023959
3.5249686 11.911821 0.83905905
3.5249689 11.932782 0.83022028
7.519969 11.94534 0.83500552
3.5249691 12.022293 0.83896935
3.5249686 12.07683 0.83472222
7.7599688 12.076999 0.83928716
0.23999999 12.165856 0.83251476
6.6613381e-16 12.196034 0.83373636
6.6613381e-16 12.305245 0.83064008
7.519969 12.336432 0.83522022
3.6999688 12.458209 0.83244079
3.6999688 12.531638 0.83806944
0.23999998 12.577539 0.8356474
6.6613381e-16 12.593033 0.83754939
0.23999999 12.718391 0.83673197
3.6999688 12.714304 0.83404887
6.6613381e-16 12.892467 0.8358469
0.23999999 12.982567 0.83651578
3.5249689 13.024205 0.83388966
6.6613381e-16 13.141726 0.83224642
7.7599688 13.1682 0.83955485
7.519969 13.185166 0.83012468
0.38849121 13.199999 0.83072948
3.0797577 13.199999 0.83460265
6.9365358 13.199999 0.83261734
0.052495763 13.2 0.83270484
0.28911412 13.200001 0.83970326
0.46702099 13.2 0.83516186
0.64309299 13.200001 0.83866227
1.3491681 13.2 0.83625901
3.2916455 13.2 0.83619887
3.609324 13.2 0.83112007
4.3158593 13.2 0.83169341
4.3833327 13.2 0.83260381
4.5291109 13.2 0.83544153
4.5657558 13.200001 0.83007592
5.5112128 13.2 0.83540821
6.4684186 13.200001 0.83345872
7.1805801 13.2 0.83947241
7.2467041 13.2 0.83475739
7.6623816 13.2 0.83643758
7.7599692 13.298607 0.83273476
0.65145946 13.439999 0.83889985
2.0473168 13.439999 0.8315621
2.433435 13.439999 0.83203566
2.7613201 13.439999 0.83290887
3.916157 13.439999 0.83637464
4.7875504 13.439999 0.83953518
5.277854 13.439999 0.83853215
5.3061566 13.439999 0.83576477
7.008491 13.439999 0.83389831
0.57438523 13.44 0.83422512
1.0585339 13.44 0.83074641
1.1787075 13.44 0.83410525
1.5287459 13.44 0.83980411
2.8239183 13.44 0.83604175
3.5500953 13.440001 0.83936906
3.7303882 13.44 0.83102489
5.7134228 13.440001 0.831182
6.3004661 13.440001 0.83850288
6.6189337 13.44 0.83296239
6.8507004 13.44 0.83062488
7.1514654 13.440001 0.83504272
0.064686909 2.7533531e-14 0.84360105
0.65453684 6.2172485e-15 0.84002364
3.6261787 6.2172489e-15 0.84910703
3.9098032 6.2172489e-15 0.84968364
7.4317718 6.2172494e-15 0.84568632
7.7072964 6.2172494e-15 0.84635741
7.791111 6.2172489e-15 0.84271866
7.269969 0.052469902 0.84959346
7.9599686 0.17994447 0.84038556
7.269969 0.18720196 0.84565997
0.23999998 0.21106322 0.84648651
7.9398479 0.23999998 0.84771621
0.27763128 0.23999999 0.84065068
0.31462717 0.23999999 0.84969932
0.53763956 0.23999999 0.84232241
0.56589258 0.24000001 0.84098542
0.59867942 0.23999999 0.84837353
3.1203992 0.24000001 0.84033936
3.5801597 0.24000001 0.84683824
7.6166668 0.23999999 0.84880722
7.895246 0.23999999 0.84112173
7.7599688 0.3795841 0.84976596
7.7599688 0.4496454 0.8403216
7.7599688 0.45674831 0.84742701
3.5249689 0.59412318 0.84320253
7.519969 0.81103295 0.84058815
7.7599688 0.85740852 0.84901524
6.6613381e-16 1.2087884 0.84251803
0.18803999 1.2049999 0.84240079
6.6613381e-16 1.5072277 0.84731519
7.7599688 1.6557109 0.84225392
0.23999999 1.6660068 0.84236139
0.23999999 1.6939554 0.84327632
3.5249689 1.7089643 0.84706169
0.23999998 1.7173473 0.8434937
6.6613381e-16 1.8301355 0.84696871
3.5249689 1.8907363 0.84841412
3.6999688 2.0757835 0.84550917
0.24000001 2.0816898 0.8443017
7.5199695 2.2738805 0.84487432
3.6999688 2.2817454 0.84337211
0.23999999 2.3010809 0.84058493
3.5249689 2.4761517 0.84534055
0.24000001 2.6235776 0.84453809
3.5249689 2.6274774 0.84687018
3.5249689 2.7293978 0.84015489
7.7599688 2.8237071 0.84966332
7.7599688 2.8758471 0.84002239
7.7599688 2.8909135 0.84033948
6.6613381e-16 2.9560156 0.84590054
3.5249689 2.9735174 0.84494126
7.519969 3.0895827 0.84668899
0.24000001 3.0994949 0.84032774
0.23999999 3.4335332 0.84136939
6.6613381e-16 3.4566078 0.84243035
0.24000001 3.4771798 0.84693015
0.23999999 3.5647688 0.84566498
3.6999688 3.5786796 0.84709847
7.7599688 3.579335 0.84504414
0.23999998 3.6562204 0.84387237
0.87505066 3.7849998 0.849985
0.93455654 3.7850003 0.84307271
1.0124191 3.7850003 0.84376079
1.3579774 3.7849998 0.84240735
1.6306047 3.7849998 0.84112889
3.6999688 3.7804682 0.84622949
7.7599688 3.8387666 0.84478092
0.23999999 3.8449464 0.84453446
7.7599688 3.8669267 0.84922463
0.25341237 3.9000001 0.84450501
0.86925364 3.9000001 0.8424685
0.9675346 3.9000001 0.84271359
1.561643 3.9000001 0.84833592
1.605077 3.9000003 0.84850752
3.5333335 3.9000001 0.84157348
3.582901 3.9000001 0.84015334
1.855 3.9172831 0.84885514
0.23999998 3.949676 0.84788907
1.74 3.96875 0.84146345
3.5249691 4.1471977 0.84293413
0.24000001 4.1936779 0.84478962
7.7599688 4.2064977 0.84175074
7.7599688 4.2789345 0.84573817
3.5249691 4.3291988 0.84660697
6.6613381e-16 4.3928843 0.84721482
6.6613381e-16 4.4881597 0.84883422
0.23999999 4.5231905 0.84144354
6.6613381e-16 4.5380549 0.84958535
3.6399689 4.6765366 0.84688044
7.7599688 4.7526498 0.84016973
6.6613381e-16 4.7674274 0.8412537
6.6613381e-16 4.8943481 0.84222776
0.82238126 4.9000001 0.84965259
0.94064569 4.9000001 0.84934497
1.3264952 4.9000001 0.84537053
1.3456408 4.9000001 0.84101433
1.9066594 4.9000001 0.84563655
3.3707969 4.9000001 0.8444823
3.5493755 4.9000001 0.84226477
0.23999999 4.9587522 0.84387791
7.519969 4.9547606 0.84292823
2.8249688 5.0506773 0.8460027
7.519969 5.0565248 0.84644628
7.7599692 5.0921288 0.84822309
7.519969 5.1246428 0.8411727
3.0052924 5.1399994 0.8458029
1.3978199 5.1399999 0.84264469
1.7182305 5.1399999 0.84594077
1.7576547 5.1399999 0.84071982
1.8950468 5.1399999 0.84491408
3.3974981 5.1400003 0.84611976
3.5832963 5.1399999 0.84506005
6.6613381e-16 5.3557596 0.84465212
6.6613381e-16 5.3694959 0.84565187
3.6999688 5.4010086 0.84315234
6.6613381e-16 5.5215549 0.84511638
7.7599688 5.6011367 0.84155428
0.23999998 5.6265588 0.84823823
3.5249689 5.8249044 0.84694201
3.6999688 5.9016371 0.84352243
0.24000001 5.9637494 0.84018159
7.519969 5.9822793 0.8419987
0.23999998 6.1943989 0.84786522
7.7599688 6.2105608 0.84243548
7.7599688 6.2471023 0.84900939
6.6613381e-16 6.2550631 0.84445661
0.23999999 6.2561889 0.84941691
6.6613381e-16 6.3618441 0.84934866
3.5249689 6.393065 0.84747356
7.519969 6.5653715 0.84545058
6.6613381e-16 6.5881643 0.8475374
3.6999688 6.6752105 0.84149426
0.24000001 6.7787142 0.84088415
7.519969 6.8530083 0.84735334
7.7599688 6.9087787 0.84310132
3.6999688 6.9246092 0.84107333
6.6613381e-16 6.949048 0.8419047
0.23999999 7.0294633 0.84329951
7.519969 7.0446439 0.84731442
7.519969 7.076941 0.84716153
7.7599688 7.073308 0.84492791
0.24000001 7.2004499 0.84736413
3.6999688 7.2049713 0.8406446
6.6613381e-16 7.2159781 0.84509265
7.519969 7.2242746 0.8428725
6.6613381e-16 7.2850432 0.84223568
0.23999999 7.3246369 0.84925318
7.519969 7.321898 0.84660643
6.6613381e-16 7.4734073 0.84731144
3.6999686 7.5364075 0.84183842
3.5249689 7.6157255 0.84239578
7.5199685 7.6169481 0.84020942
3.5249689 7.6509023 0.84466857
0.2735275 7.665 0.84858596
0.71498346 7.665 0.84335178
0.82561564 7.665 0.84183037
0.99546987 7.665 0.8492654
1.4209827 7.665 0.84793735
1.5162904 7.665 0.84075081
1.9422985 7.665 0.84459186
2.4598439 7.665 0.84937096
2.9343743 7.665 0.8496846
7.7599688 7.7368655 0.84484243
0.23999998 7.7500167 0.84488624
0.40006244 7.7799997 0.84301734
0.64210206 7.7800002 0.84295088
1.7047973 7.7800007 0.84485376
1.774193 7.7800002 0.8485384
2.3585401 7.7800002 0.8474139
2.4618227 7.7800002 0.84404165
2.5772243 7.7799997 0.84040511
2.9741716 7.7800002 0.84383023
3.1849425 7.7800002 0.84394592
3.5249686 7.7989664 0.84628195
3.5249689 7.8116927 0.84657782
0.23999999 7.8280716 0.8483234
6.6613381e-16 7.8762832 0.84227264
7.7599688 7.8825932 0.84463274
3.6999688 7.9121747 0.84135699
0.23999998 7.9514313 0.84279269
0.23999998 7.9678144 0.84931028
7.7599688 8.1170874 0.84210336
7.519969 8.1758747 0.84368449
7.7599688 8.2441406 0.8471576
3.6999686 8.2549362 0.84472525
7.519969 8.3320312 0.84233326
7.519969 8.439682 0.84563613
3.6999688 8.4856081 0.84524918
7.7599688 8.7377396 0.84833568
7.519969 8.7570543 0.84564793
6.6613381e-16 8.7726202 0.84360349
0.23999998 8.7825699 0.84927535
7.7599688 8.790061 0.8431927
6.6613381e-16 8.8937721 0.84919238
0.24000001 8.9012909 0.84932971
7.519969 9.0978565 0.84336889
7.7599688 9.1223898 0.84301901
0.23999998 9.4199524 0.84947491
0.23999999 9.4496717 0.84804988
6.6613387e-16 9.5085258 0.84400284
3.6999688 9.5577641 0.84736121
6.6613381e-16 9.5818872 0.84496677
6.6613387e-16 9.5989075 0.84238005
3.5249691 9.6854124 0.84598655
3.5249689 9.782959 0.8456341
0.23999999 10.022804 0.84101623
7.5199685 10.122674 0.84611809
7.519969 10.169225 0.84542465
0.23999999 10.208863 0.84292698
0.59438032 10.2 0.8419987
0.83217156 10.200001 0.84772336
1.2790282 10.2 0.84398568
3.4600101 10.2 0.84395492
5.0999522 10.2 0.84536052
5.8884706 10.200001 0.84084767
6.0077868 10.2 0.84563142
6.5049772 10.2 0.84898221
6.6541753 10.2 0.8445127
6.7761469 10.2 0.8406803
7.3508563 10.2 0.84091538
2.5549688 10.210086 0.84056413
3.8199687 10.234231 0.84785008
0.23999998 10.27037 0.84861195
7.519969 10.295671 0.84272599
0.23999998 10.320374 0.84271353
7.519969 10.366336 0.84931356
5.6345625 10.439999 0.84481251
6.26999 10.439999 0.84131509
0.90810215 10.440001 0.84743351
2.1089087 10.44 0.84211338
3.5156431 10.44 0.84206998
5.0266147 10.44 0.84179139
5.8368397 10.44 0.84188533
5.9413195 10.44 0.84575576
5.9701519 10.44 0.84019274
7.189785 10.44 0.84884745
3.5249686 10.581699 0.84488773
7.519969 10.583923 0.8482585
3.5249689 10.66046 0.84515738
6.6613381e-16 10.670999 0.84667134
7.7599688 10.691834 0.84076524
3.5249691 10.729625 0.84759295
6.6613381e-16 10.737515 0.84544396
3.6999688 10.76338 0.84459198
7.7599688 10.804616 0.84220731
0.23999998 10.824493 0.84117925
3.5249689 10.833149 0.84592223
6.6613376e-16 10.904609 0.84768021
3.6999688 11.105263 0.84863883
3.6999688 11.111329 0.84439188
7.519969 11.115331 0.84257197
0.23999998 11.199402 0.8475821
0.23999999 11.341819 0.8445878
3.6999688 11.353755 0.84133196
7.519969 11.380843 0.84756196
0.23999999 11.426634 0.84379512
6.6613381e-16 11.49871 0.84015012
7.7599688 11.679311 0.84575611
6.6613381e-16 11.690099 0.84037328
7.519969 11.691826 0.8471849
6.6613381e-16 11.776207 0.84908867
3.6999688 11.807882 0.84481585
3.6999688 11.86371 0.84901267
7.519969 11.901339 0.84298098
7.7599688 11.979125 0.84349197
7.519969 12.029643 0.84035498
0.24000001 12.044201 0.84717029
0.24000001 12.153289 0.84791034
3.5249689 12.166168 0.84513044
3.5249691 12.401999 0.84960312
3.6999688 12.468738 0.84875339
3.5249689 12.662274 0.84466052
6.6613381e-16 12.698145 0.8434087
7.7599683 12.781254 0.84128886
3.5249689 12.801197 0.84728646
3.6999688 12.803727 0.84265202
0.24000001 12.913485 0.8460263
0.23999998 12.951155 0.84711874
3.6999688 12.963524 0.84346771
7.7599688 12.972775 0.8455584
0.23999999 13.022595 0.8429603
7.7599688 13.036377 0.84988546
7.519969 13.101968 0.84488356
7.519969 13.13055 0.84141886
0.021922061 13.199999 0.84849513
0.66606396 13.199999 0.84466457
2.0019872 13.199999 0.84277081
2.1110809 13.199999 0.84717232
3.8252861 13.199999 0.84995389
4.9780865 13.199999 0.84752983
5.0822577 13.199999 0.84930366
5.345274 13.199999 0.84725183
0.64555979 13.2 0.8470515
0.69572997 13.2 0.84355211
3.3072217 13.2 0.8448478
3.6885884 13.200001 0.84317845
3.6994014 13.2 0.8463909
3.8382266 13.200001 0.84307593
4.4790707 13.2 0.84889066
4.8591299 13.2 0.84892863
5.5041523 13.200001 0.8403343
6.7075181 13.2 0.84513921
7.3725324 13.2 0.84675413
7.3868313 13.2 0.84554726
7.5990734 13.2 0.84956539
7.6687369 13.200001 0.84831464
7.7599688 13.20467 0.84622997
7.7599688 13.274158 0.84972668
7.7599688 13.347221 0.84352899
7.7599688 13.366554 0.84003931
2.1538327e-14 13.395874 0.84005654
0.095130332 13.439999 0.84319109
0.40403298 13.439999 0.84238648
2.0444341 13.439999 0.84070647
2.2833409 13.439999 0.84569234
2.565804 13.439999 0.84007269
2.7933764 13.439999 0.84279639
4.4708023 13.439999 0.8446086
7.2317791 13.439999 0.84456623
7.7116318 13.439999 0.84700036
0.015884085 13.44 0.84612864
0.086504996 13.44 0.84924376
0.90002418 13.44 0.84789753
1.0363669 13.44 0.84461892
2.3371544 13.44 0.84032744
2.4089925 13.440001 0.84666443
2.9533651 13.44 0.84540045
3.1253641 13.44 0.84689832
4.1670442 13.44 0.84432334
4.6427641 13.44 0.84943318
4.7469754 13.440001 0.84689045
5.36307 13.440001 0.84685886
5.4740653 13.440001 0.84228289
5.6187081 13.440001 0.84250212
5.745492 13.44 0.84781384
5.8196454 13.440001 0.84058732
5.9981604 13.44 0.8439644
6.4111533 13.44 0.84764814
0.13835889 2.7533531e-14 0.85203612
2.8399894 6.2172489e-15 0.85574377
2.8904066 6.2172489e-15 0.85206616
3.1862087 6.2172489e-15 0.85703611
3.2084582 6.2172489e-15 0.85807949
3.4993703 6.2172489e-15 0.85602021
3.6626656 6.2172489e-15 0.85829419
3.9133527 6.2172489e-15 0.85736895
3.9507327 6.2172489e-15 0.85937047
7.3235064 6.2172489e-15 0.85223264
4.1699686 0.023250746 0.85688829
4.1699686 0.062500395 0.85335857
4.1699686 0.21949784 0.85304868
7.7158117 0.23999998 0.85002357
0.38261533 0.24000001 0.85606211
0.69385684 0.24000001 0.85383099
3.6661038 0.23999999 0.85608
3.685925 0.23999999 0.85475945
7.9521961 0.23999999 0.85169834
7.519969 0.3067736 0.8574236
7.519969 0.35350299 0.85939592
3.5249686 0.43654928 0.85186267
3.6999688 0.45929196 0.85124362
7.7599688 0.4902305 0.8541255
3.6999688 0.53599811 0.85030061
3.6999688 0.56601042 0.85883904
3.5991285 0.68000001 0.85828865
3.69136 0.68000001 0.85849071
7.7599688 1.0531988 0.85774148
7.7599688 1.1092404 0.85588419
6.6613381e-16 1.3777467 0.85319877
7.5199695 1.3758266 0.85305381
7.7599688 1.40098 0.85839403
0.23999998 1.4535322 0.85878253
0.23999999 1.4754328 0.85016763
7.519969 1.6038454 0.85017467
0.24000001 1.6369252 0.85037035
7.519969 1.7046618 0.85284901
3.6999688 1.782216 0.85598624
7.7599688 1.7896166 0.8578006
0.23999999 1.9132607 0.85251391
3.5249689 1.9700559 0.85238338
6.6613381e-16 2.1442914 0.85607076
3.5249689 2.1764631 0.85834777
3.5249689 2.2216709 0.8519274
3.6999688 2.3226175 0.85368991
7.519969 2.3773465 0.85848564
6.6613381e-16 2.4074745 0.85362273
0.24000001 2.4638853 0.85784984
3.5249689 2.5191231 0.85125887
7.7599688 2.6032047 0.85053456
6.6613381e-16 2.6518114 0.85969013
3.5249691 2.6797123 0.85110962
3.6999688 2.684015 0.85975486
7.519969 2.760016 0.85772067
3.6999688 2.9211011 0.85322154
6.6613381e-16 3.002491 0.8599146
7.519969 3.1043942 0.85225308
3.5249689 3.2261722 0.85436386
0.23999999 3.2347858 0.85637844
3.5249689 3.2373159 0.85297412
7.7599688 3.2566516 0.85241741
0.23999999 3.2888885 0.85711604
7.519969 3.307765 0.85278904
7.519969 3.3121934 0.85000563
7.519969 3.3435745 0.85124272
6.6613381e-16 3.3692822 0.85375702
7.7599688 3.4789817 0.85230708
3.5249689 3.6050873 0.85380721
3.6999688 3.6125579 0.85107327
1.0811744 3.7849998 0.85796332
1.3251126 3.7850001 0.85285228
1.3819437 3.7850003 0.85071635
1.74 3.833643 0.85575479
3.6999688 3.8955569 0.8509981
0.76544261 3.9000001 0.85620409
0.78597885 3.9000001 0.8511889
1.4536743 3.9000003 0.85221863
1.5562856 3.9000001 0.85418177
3.6872182 3.9000001 0.85530466
3.6399689 3.9726734 0.85927719
1.855 3.9971683 0.85488504
7.519969 4.0564022 0.857288
3.5249689 4.113996 0.85460943
3.6399689 4.1374106 0.85019058
6.6613381e-16 4.1413312 0.85731149
3.5249691 4.1839519 0.85863155
3.6399689 4.1986537 0.85715598
6.6613381e-16 4.2579436 0.85842699
3.6399689 4.462276 0.85642278
0.23999999 4.4871454 0.85237581
7.519969 4.6639366 0.85846663
7.7599688 4.6996651 0.85431302
3.5249689 4.7204051 0.85490203
3.6399689 4.7220845 0.85417026
3.5249689 4.7977257 0.85684937
7.519969 4.8277216 0.85787725
1.74 4.8631558 0.85115564
7.7599688 4.8844581 0.85470396
0.71133977 4.9000001 0.85888469
0.84530741 4.9000001 0.85282499
1.0890203 4.9000001 0.85928166
3.6314347 4.9000001 0.85459274
3.6999688 4.9688578 0.85167742
0.23999998 5.0298891 0.85672855
0.23999999 5.0546584 0.85392219
7.519969 5.0731378 0.85977417
2.8249688 5.0857782 0.85548037
0.2451379 5.1399999 0.8566013
1.1511065 5.1399999 0.85411954
1.4334242 5.1399999 0.85910684
1.7256457 5.1399999 0.85914278
1.7340043 5.1399999 0.85757422
3.3485305 5.1400003 0.85530871
6.6613381e-16 5.3629169 0.85951847
0.23999999 5.3998828 0.85338777
3.5249689 5.4277463 0.85512978
0.23999998 5.5054665 0.85470915
0.23999999 5.6675334 0.85659915
0.23999999 5.7003684 0.85473931
3.6999688 5.7055922 0.85443139
0.23999998 5.8569975 0.85971487
6.6613381e-16 5.8912554 0.85767651
6.6613381e-16 6.288919 0.852552
0.24000001 6.2850223 0.85415363
3.6999688 6.2840014 0.8540343
3.6999688 6.3079753 0.853019
6.6613381e-16 6.3783202 0.85038209
0.24000001 6.3803511 0.85879999
6.6613381e-16 6.5403786 0.85707861
6.6613381e-16 6.6289501 0.85834813
3.5249689 6.7170448 0.85712761
0.23999998 6.7669306 0.85452783
3.6999688 6.8397512 0.8557536
7.7599688 6.8517165 0.85132045
3.5249689 6.9171672 0.85147047
7.7599688 6.9203739 0.85245502
7.7599688 6.950458 0.85959184
7.7599688 6.964519 0.85562396
7.519969 7.0718923 0.85950792
7.7599688 7.0947938 0.85577363
7.7599688 7.2374754 0.85204816
7.7599688 7.3312206 0.85574514
7.7599688 7.3483257 0.85587299
0.23999998 7.3841977 0.85706735
3.6999688 7.3943706 0.85404873
3.6999688 7.4075704 0.85513926
7.7599688 7.5129018 0.85062373
0.3797189 7.665 0.8563841
0.38149148 7.665 0.85780853
0.70057935 7.665 0.85926223
1.0672235 7.665 0.85919511
1.4928399 7.665 0.85034275
0.24000001 7.7029924 0.85861999
0.80770195 7.7800007 0.855313
0.81681895 7.7800002 0.85870695
1.4866003 7.7799997 0.85443246
1.7975847 7.7799997 0.85950667
1.9804969 7.7800002 0.85889131
2.088114 7.7800002 0.8588047
2.7154698 7.7800002 0.85875392
3.0360842 7.7800002 0.85305333
0.23999999 7.8271112 0.8550148
7.7599688 7.8253922 0.8545022
7.519969 7.8664765 0.8583281
0.24000001 7.964632 0.8565172
3.5249689 8.0217323 0.85880601
3.6999688 8.0209999 0.85299742
7.519969 8.0324688 0.85368347
0.23999998 8.1079922 0.85861719
7.7599688 8.1097584 0.85579646
3.5249686 8.1127567 0.85806298
6.6613381e-16 8.180419 0.85995936
3.5249689 8.2816429 0.85183346
3.5249689 8.4288797 0.85629666
7.7599688 8.4429827 0.85746902
6.6613381e-16 8.4552088 0.85546142
7.7599688 8.5962067 0.85938215
7.519969 8.8545561 0.85583127
6.6613381e-16 9.1995478 0.85637432
7.7599688 9.3256502 0.85265058
7.519969 9.3593168 0.85633892
3.6210876 9.3999996 0.85094869
0.23999998 9.4171877 0.85841972
3.5249691 9.4554482 0.85970843
6.6613381e-16 9.5227804 0.85715151
7.5199685 9.642314 0.85040689
7.5199685 9.6579962 0.85657442
3.5249689 9.6667633 0.85833526
0.23999998 9.7037401 0.85765988
0.23999999 9.867382 0.85798323
7.7599688 9.8788261 0.85160971
0.24000001 10.091225 0.85753721
7.7599688 10.142453 0.85708243
0.57733226 10.200001 0.85710728
0.78316808 10.200001 0.85437846
1.4515455 10.200001 0.85484821
2.1433766 10.2 0.85993457
3.7213459 10.2 0.85668355
6.0874529 10.2 0.85775805
6.2248988 10.2 0.85204458
6.351109 10.2 0.85690218
6.7346325 10.2 0.85924828
7.0845013 10.2 0.85659397
7.3997164 10.2 0.85226309
0.23999998 10.273541 0.85581726
2.5549688 10.340557 0.85630322
7.519969 10.367137 0.85012275
2.5549688 10.388988 0.85512501
7.7599688 10.414652 0.85436797
0.30220145 10.439999 0.8588838
5.409627 10.439999 0.85173219
0.25541434 10.44 0.85826737
0.6640296 10.44 0.8587535
1.1088104 10.44 0.85162199
1.4542215 10.44 0.85181427
1.760096 10.44 0.85903347
3.6113925 10.44 0.85492325
3.650429 10.440001 0.85405099
5.6628399 10.44 0.85117352
6.4611712 10.44 0.85064036
6.5363007 10.44 0.8574748
6.6425557 10.44 0.85808849
6.8705001 10.44 0.85447782
7.3239441 10.44 0.85983706
7.3895507 10.44 0.85928011
7.477406 10.44 0.85739535
7.7599688 10.452528 0.8589896
6.6613381e-16 10.481579 0.85291779
0.24000001 10.746076 0.85174185
6.6613381e-16 10.787591 0.85264933
3.6999688 10.815108 0.85148048
3.6999688 10.846206 0.85591817
3.5249689 10.892083 0.85453492
3.6999688 11.02437 0.85567242
7.7599688 11.027132 0.8534708
0.24000001 11.146172 0.8586967
0.24000001 11.264158 0.85303646
6.6613381e-16 11.300666 0.8572073
7.7599688 11.324528 0.85382134
7.519969 11.345265 0.85338831
0.23999998 11.422004 0.85406923
3.6999688 11.487244 0.85939693
0.23999999 11.498244 0.85023129
0.23999998 11.555203 0.85570341
6.6613381e-16 11.637033 0.85943663
6.6613381e-16 11.670626 0.85353994
7.519969 12.000653 0.85294932
3.5249689 12.051008 0.85295594
3.6999688 12.086618 0.85349852
6.6613381e-16 12.151909 0.85331357
0.23999999 12.237333 0.85907358
7.7599688 12.300679 0.85113865
7.519969 12.398038 0.85866612
6.6613381e-16 12.540167 0.85522676
7.7599688 12.550112 0.85498357
3.5249686 12.626058 0.85455358
7.7599688 12.646886 0.85643798
7.7599683 12.67855 0.85917336
3.6999688 12.713152 0.85977554
7.7599688 12.74372 0.8595767
0.23999999 12.777456 0.85939389
6.6613381e-16 12.798198 0.85658026
0.23999999 12.806787 0.85082823
7.519969 12.868649 0.85845619
7.519969 12.880091 0.8517254
0.23999998 12.952396 0.85673797
6.6613381e-16 13.009334 0.85972965
3.5249689 13.029572 0.85997486
6.6613376e-16 13.031138 0.85233068
0.23999999 13.058494 0.85429341
3.5249691 13.076147 0.85061812
6.6613381e-16 13.11687 0.85053253
7.7599688 13.181084 0.85620558
3.9578068 13.199999 0.85098445
4.7800317 13.199999 0.85483146
6.7873855 13.199999 0.85340023
7.681982 13.199999 0.85906112
7.6925306 13.199999 0.85185397
0.095190264 13.2 0.85618532
0.74214494 13.200001 0.853037
0.80101854 13.2 0.85280961
1.5115471 13.2 0.85900688
1.7242668 13.2 0.85419393
4.1262445 13.2 0.85488105
4.1533108 13.200001 0.85469842
4.3816938 13.200001 0.85668135
5.0574961 13.200001 0.85335112
6.0565519 13.2 0.8524648
6.1216192 13.200001 0.85168654
6.3797846 13.2 0.85579896
6.579946 13.2 0.85336709
7.1028957 13.2 0.85973829
2.1538327e-14 13.275994 0.85014731
0.81554127 13.439999 0.85482013
1.7578323 13.439999 0.85979396
1.850829 13.439999 0.8574031
4.9889121 13.439999 0.85970038
5.3796558 13.439999 0.85018563
6.9950957 13.439999 0.85106796
0.33327827 13.44 0.85755193
0.63289917 13.44 0.85354894
0.67996526 13.44 0.85375655
1.7236853 13.44 0.85183561
2.9858122 13.440001 0.85652435
3.8628433 13.44 0.85874337
4.0654478 13.44 0.85386252
4.9433999 13.440001 0.85831147
5.441864 13.440001 0.8504467
5.5544581 13.440001 0.8514502
5.7559566 13.44 0.85910398
5.9565701 13.44 0.85849416
6.7894697 13.44 0.85862577
6.6613381e-16 0.0080805719 0.86307716
0.47406411 6.2172489e-15 0.86848438
0.55850488 6.2172489e-15 0.86194563
3.0550523 6.2172489e-15 0.86766231
3.6634958 6.2172489e-15 0.8654353
7.5372553 6.2172489e-15 0.86257952
0.70999998 0.013751421 0.86422086
0.70999998 0.028994622 0.86283356
4.1699686 0.061890919 0.86682069
7.2699685 0.17280607 0.86456513
4.1699686 0.21127909 0.86708391
3.0289676 0.23999998 0.8691541
3.6115499 0.23999998 0.86762697
0.5852263 0.23999999 0.8616699
0.62867832 0.23999999 0.86448169
3.7173321 0.23999999 0.86651254
7.6643963 0.24000001 0.86023849
3.6999688 0.43968344 0.8644709
7.7599688 0.53563589 0.86150801
3.6999688 0.55685759 0.86255902
7.519969 0.64502084 0.86871159
3.5324249 0.68000001 0.86715329
7.519969 0.85286331 0.86970216
7.7599688 1.1618276 0.8617171
7.5199685 1.1970137 0.86222833
7.7599688 1.1994872 0.86967218
6.6613381e-16 1.2764486 0.86243409
0.24000001 1.2704552 0.86814827
7.519969 1.3424239 0.86867684
7.7599688 1.3753392 0.8612833
7.7599688 1.5781635 0.86075962
3.6999688 1.6311634 0.86034918
3.5249689 1.6512133 0.86797196
0.23999999 1.8320329 0.86723715
7.519969 1.8407276 0.86440074
7.519969 1.973696 0.8648659
7.7599688 1.9918438 0.86205178
6.6613387e-16 2.1026917 0.86891365
0.24000001 2.2315907 0.86725664
7.7599688 2.2352347 0.86316359
0.23999999 2.2519312 0.86231709
0.23999999 2.2808089 0.86237204
7.519969 2.3177948 0.86493063
3.6999688 2.3830686 0.86717516
0.23999999 2.5009472 0.86664486
3.6999688 2.5756876 0.86273402
3.6999688 2.6665218 0.86968577
7.519969 2.7110748 0.86704373
0.23999999 2.7255685 0.86035383
6.6613381e-16 2.7623124 0.86738288
3.5249689 2.7654805 0.8653565
7.519969 2.8617504 0.86380339
3.6999688 2.9280953 0.86033791
0.23999998 2.934216 0.86110735
0.23999998 2.9886472 0.86500788
3.5249689 3.0173268 0.8619253
7.519969 3.1596904 0.86256015
3.6999688 3.2425144 0.86661696
3.6999688 3.305418 0.86835688
0.23999999 3.3105977 0.86980778
6.6613381e-16 3.3912842 0.8619858
7.7599692 3.4336658 0.86256963
3.5249689 3.4468644 0.86799949
3.6999688 3.4885614 0.86392039
7.7599688 3.5797567 0.86671448
6.6613381e-16 3.6836689 0.86891407
0.23999999 3.7595832 0.86755252
0.44282618 3.7850001 0.86761725
1.0491756 3.7850003 0.86422896
1.1764472 3.7850001 0.86701971
7.519969 3.828932 0.86344957
0.46819204 3.9000001 0.86640179
0.74617726 3.9000001 0.86432165
0.82680321 3.9000001 0.86338633
1.2648376 3.9000001 0.86930239
6.6613381e-16 3.9168496 0.86767155
1.855 3.9105296 0.86392772
1.855 3.9636531 0.86834043
0.23999999 4.2021766 0.86333752
3.5249691 4.3830018 0.86093211
6.6613381e-16 4.4266481 0.86162782
7.519969 4.5031667 0.86125761
3.6399689 4.6373844 0.86119056
0.24000001 4.7488532 0.86637831
1.855 4.8297834 0.86203516
7.7599688 4.8484197 0.86886644
6.6613381e-16 4.908689 0.86665881
0.94022906 4.9000001 0.86745137
1.924969 4.9090381 0.86559796
3.4510725 4.9000001 0.86640286
3.6168063 4.9000001 0.86046195
7.519969 4.9078689 0.86854804
7.519969 4.9137411 0.86160475
7.7599688 4.9396682 0.86692822
2.8249688 4.9415302 0.86631173
7.519969 4.9658217 0.86029947
7.519969 4.9734559 0.86921793
7.7599683 5.0419202 0.86565697
0.23999998 5.1111913 0.86451131
0.92114151 5.1399994 0.86243534
3.0704613 5.1399999 0.86272007
3.1756072 5.1399999 0.86113763
3.3074069 5.1399999 0.86504602
3.3287988 5.1399999 0.86414963
3.5435734 5.1399999 0.8649531
3.5544589 5.1399999 0.86301965
3.6147933 5.1400003 0.86451566
7.7599688 5.1432157 0.86021256
7.7599688 5.1780591 0.86763895
7.7599688 5.1874809 0.86030352
7.7599688 5.3423853 0.8619374
6.6613381e-16 5.3926306 0.8611095
7.519969 5.5057592 0.86444968
7.7599688 5.5258999 0.86649805
0.23999998 5.5493412 0.86577129
3.5249686 5.6434793 0.86998594
7.519969 5.6654606 0.86828262
6.6613381e-16 5.6721749 0.8619222
3.5249691 5.7972183 0.86768562
0.24000001 5.9807177 0.86327177
3.5249691 6.0291319 0.8641727
3.6999688 6.0241137 0.86941838
7.519969 6.0478497 0.8649587
6.6613381e-16 6.2277246 0.86194903
6.6613381e-16 6.2607136 0.86044693
3.6999688 6.3368616 0.86731571
7.7599688 6.3374267 0.86860973
6.6613381e-16 6.422061 0.86557662
7.519969 6.4836779 0.8612271
0.24000001 6.5257521 0.86213368
0.24000001 6.66957 0.86412501
7.519969 6.718163 0.86723417
7.7599688 6.8687711 0.86310554
6.6613381e-16 6.8795505 0.86027235
3.5249689 6.8727698 0.86063701
3.5249691 6.9120846 0.86773103
3.5249691 6.9753752 0.86441994
3.6999688 7.1426773 0.86388993
0.23999999 7.1540437 0.8643446
3.6999688 7.1932559 0.86857444
6.6613381e-16 7.3169961 0.86740762
6.6613381e-16 7.5267806 0.86906469
7.519969 7.6323085 0.86187482
0.35488039 7.665 0.86723346
1.0118673 7.665 0.86404127
1.0915732 7.665 0.86597776
1.1758513 7.665 0.86184436
1.2759209 7.665 0.86889124
3.3646626 7.665 0.86869222
3.4811954 7.665 0.86901873
0.24000001 7.7147131 0.86495608
0.23999999 7.7233624 0.86055523
0.24000001 7.7423487 0.86580163
3.6999688 7.7778902 0.8650403
0.32135642 7.7799997 0.86502695
0.34735405 7.7800002 0.86681598
0.86852491 7.7800007 0.8600685
1.7843665 7.7800002 0.86980134
1.9794208 7.7799997 0.86031997
2.1976304 7.7799997 0.86870158
3.4728336 7.7800007 0.8630231
3.6999688 7.8963432 0.86575866
3.5249689 7.9357681 0.86802268
7.519969 7.9877663 0.86033541
7.519969 8.0906162 0.86829972
3.6999688 8.2338209 0.86380517
3.6999686 8.2504215 0.8686884
7.519969 8.2541771 0.86282724
7.519969 8.3276711 0.86058295
7.519969 8.3913898 0.86515558
0.23999998 8.5322361 0.86118907
7.519969 8.6040878 0.86075091
7.519969 8.6533899 0.86224425
7.5199685 8.8002291 0.8650856
6.6613381e-16 8.8270264 0.86038083
6.6613381e-16 8.8394346 0.86777759
0.23999998 8.8644571 0.8696301
6.6613381e-16 8.9334984 0.8627187
7.7599688 9.0318251 0.86567712
6.6613381e-16 9.0891581 0.86105597
7.7599688 9.1936436 0.86545706
7.519969 9.3062439 0.86008894
0.24000001 9.5003748 0.86569524
7.7599688 9.5591316 0.86271304
6.6613381e-16 9.6493053 0.86307597
3.5249689 9.8318481 0.86892527
3.6999688 9.8347969 0.86666608
0.23999998 9.9482222 0.86987066
7.7599692 10.106116 0.8669489
6.6613381e-16 10.203451 0.86408126
0.46792614 10.2 0.86251378
0.61681902 10.2 0.86540961
1.5168362 10.2 0.86229044
1.5718579 10.2 0.86509788
1.5999261 10.2 0.86724174
1.7832601 10.2 0.86842519
2.3544645 10.2 0.8698377
6.5109138 10.2 0.86648697
7.0014558 10.200001 0.86497784
7.519969 10.254842 0.8613174
0.23999999 10.272433 0.86264449
3.8199687 10.271306 0.86549342
0.23999999 10.310487 0.86296034
2.2287009 10.439999 0.86243027
5.062645 10.439999 0.86643821
7.7599688 10.439434 0.86227393
0.323183 10.44 0.86565804
0.74160725 10.44 0.86230856
0.81815946 10.44 0.86535102
4.95154 10.44 0.86068678
5.2709107 10.44 0.86789638
5.3338556 10.44 0.86445963
6.3136001 10.44 0.86794263
6.3790512 10.440001 0.86233574
6.4893284 10.44 0.86881214
6.5650015 10.44 0.86090058
7.0309186 10.44 0.86977202
7.5090623 10.44 0.86919761
6.6613381e-16 10.498793 0.86259907
7.519969 10.635143 0.86091864
7.7599688 10.65606 0.86177504
7.519969 10.664082 0.86379969
0.24000001 10.690544 0.86962992
3.6999688 10.756338 0.86244386
0.23999999 10.835001 0.86829209
7.519969 10.908731 0.86214244
7.7599688 10.958788 0.86892873
6.6613381e-16 11.075923 0.86670589
3.6999688 11.122188 0.86887419
0.23999999 11.158729 0.86809504
0.24000001 11.168013 0.86065561
7.7599688 11.264268 0.86425215
0.23999998 11.553488 0.8624993
3.6999688 11.57239 0.86897856
7.7599688 11.624739 0.86297989
6.6613381e-16 11.651878 0.86668158
3.6999688 11.704512 0.86960715
6.6613381e-16 11.712556 0.86187828
6.6613381e-16 11.720366 0.86115992
7.519969 11.794118 0.86023223
7.519969 11.805288 0.86773038
3.5249691 11.851152 0.86258042
7.519969 11.894491 0.86419094
3.6999688 11.9334 0.86824226
7.7599688 12.085059 0.86778295
3.5249686 12.112221 0.86468387
6.6613381e-16 12.138012 0.86325204
7.7599688 12.297544 0.86502123
7.7599688 12.36129 0.86739969
3.6999688 12.457995 0.86373293
7.7599688 12.458307 0.86674631
3.6999688 12.497065 0.86450434
7.519969 12.757034 0.86467481
3.6999688 12.926664 0.86311084
7.7599688 13.04363 0.86481619
3.5249689 13.1806 0.86464834
5.2613006 13.199999 0.86678106
5.2827435 13.199999 0.86805552
0.14894877 13.200001 0.86187732
0.65819836 13.200001 0.86258924
1.1589115 13.2 0.86976945
1.7763422 13.2 0.86789799
2.1519723 13.2 0.86532336
2.4173107 13.2 0.86452544
3.0940759 13.2 0.86596483
4.0174885 13.2 0.86790532
4.0699792 13.2 0.86653948
4.4835629 13.2 0.8654173
5.1197376 13.2 0.8605634
5.5476274 13.2 0.86987889
5.88376 13.200001 0.86586595
6.0999093 13.2 0.86010402
6.3801303 13.2 0.86034799
6.4287567 13.2 0.86528361
6.4594283 13.2 0.86818433
7.5362296 13.2 0.86719048
7.7599688 13.33746 0.86437935
7.7599688 13.370541 0.86237818
2.2618124 13.439999 0.86443591
4.2783689 13.439999 0.86362588
6.6553373 13.439999 0.86396104
0.87724078 13.44 0.86208975
1.310416 13.44 0.86624724
2.2471094 13.440001 0.86794811
3.1630902 13.44 0.86465716
3.1869783 13.44 0.8617624
3.3896883 13.44 0.86462122
3.5785906 13.44 0.86413568
4.5917616 13.440001 0.86988121
4.6501079 13.440001 0.86933923
4.8914089 13.440001 0.86379373
5.2681022 13.44 0.86845624
5.6842241 13.44 0.86419731
5.7267551 13.44 0.86647105
5.7801352 13.440001 0.86925876
6.0276284 13.440001 0.86537039
7.2429228 13.44 0.86513841
7.5441036 13.44 0.86272979
0.14696346 2.7533531e-14 0.87497824
0.40519392 6.2172489e-15 0.87710667
2.8082368 6.2172489e-15 0.87975556
3.1787941 6.2172489e-15 0.87907779
3.3001261 6.2172489e-15 0.87115419
3.4880753 6.2172489e-15 0.87077749
3.5176668 6.2172489e-15 0.87464511
3.6673043 6.2172489e-15 0.87042314
3.9712598 6.2172489e-15 0.87457293
7.3582783 6.2172489e-15 0.8752017
7.5926657 6.2172489e-15 0.87595093
0.23999998 0.084980309 0.87896913
0.23999998 0.10604247 0.87771422
0.70999998 0.10212976 0.87535912
6.6613381e-16 0.12898079 0.87842441
2.79 0.17693351 0.87154078
7.269969 0.18346752 0.87049639
0.23999999 0.19039194 0.87697381
4.1699686 0.19729824 0.87136328
7.9599686 0.22993799 0.8780573
0.42062169 0.23999998 0.87443
0.55383372 0.23999998 0.8756566
3.0995684 0.23999998 0.87954354
3.6684093 0.23999998 0.87090278
0.23999999 0.24604039 0.87937385
2.8345416 0.24000001 0.87841427
3.3371239 0.23999999 0.87177569
3.6916392 0.23999999 0.87911582
3.7701046 0.23999999 0.87759686
3.9438968 0.24000001 0.87397641
7.3733983 0.23999999 0.87854856
7.4167013 0.23999999 0.87492967
7.760685 0.23999999 0.87499273
3.6999688 0.30292836 0.87905657
3.5249689 0.33012006 0.87451369
7.7599688 0.58491367 0.8780486
7.519969 0.9145146 0.87512815
7.7599688 1.1551788 0.87586588
0.14309415 1.205 0.8782835
6.6613381e-16 1.3407984 0.87363011
7.7599688 1.3555707 0.8710593
3.5490699 1.5800002 0.87173057
7.7599688 1.6404175 0.87814319
7.519969 1.6896921 0.87875259
7.5199685 1.7981679 0.87143052
3.6999688 1.8152467 0.87776417
3.5249691 1.8497062 0.8761552
6.6613381e-16 1.8658698 0.87774712
7.519969 1.8738751 0.87222713
6.6613381e-16 1.908901 0.87510258
3.5249689 2.0451 0.87716329
7.7599688 2.0479472 0.87725008
7.519969 2.1737025 0.87115836
7.7599688 2.2887959 0.87617528
6.6613381e-16 2.3336351 0.87191731
3.5249691 2.4474516 0.8748728
7.519969 2.4635556 0.87151593
6.6613381e-16 2.5036471 0.87657505
0.23999998 2.6375866 0.87162101
7.519969 2.7215853 0.87637913
6.6613381e-16 2.8337121 0.87900174
3.6999688 2.9592893 0.87265718
7.7599688 2.9827302 0.87548542
7.7599688 3.0362029 0.87499177
6.6613381e-16 3.05548 0.87069684
7.7599688 3.0590408 0.87180102
6.6613381e-16 3.0769513 0.8778162
7.519969 3.0970216 0.87617463
7.519969 3.1123691 0.87318301
3.5249691 3.152801 0.87163609
0.23999998 3.1772895 0.87705302
7.519969 3.2457876 0.87578988
6.6613376e-16 3.3084743 0.87520027
6.6613381e-16 3.3589973 0.87245005
3.5249689 3.3671286 0.87314564
7.519969 3.3761785 0.87710142
0.23999999 3.4198003 0.87540448
3.6999688 3.4442461 0.87482983
6.6613381e-16 3.4700975 0.87329113
3.6999688 3.5260746 0.8790186
7.519969 3.5528746 0.87133437
3.6999688 3.6496437 0.87665188
7.7599688 3.6562629 0.87275004
3.5249689 3.6719592 0.87669688
6.6613381e-16 3.6971416 0.87244791
0.23999999 3.7260618 0.87536049
0.68724483 3.7850003 0.87245578
0.7395156 3.7850003 0.87104702
0.98237264 3.7849998 0.87814611
1.2320286 3.7849998 0.87240708
1.5380696 3.7850001 0.87534094
1.7751327 3.7849998 0.87410665
0.23999998 3.8502243 0.87225771
7.519969 3.8592193 0.87531388
3.5249691 3.8697255 0.87153125
1.7400001 3.8903682 0.87098622
0.23999999 3.9015093 0.87931132
0.49377066 3.9000001 0.87323695
0.51019228 3.9000001 0.87371159
0.80155563 3.9000001 0.87328392
0.84169459 3.9000001 0.87918633
0.91806638 3.9000001 0.87385684
0.92659742 3.9000001 0.87558311
1.0938324 3.8999999 0.87051558
1.3982532 3.9000001 0.87096572
1.6131003 3.9000001 0.87654632
3.5693247 3.8999999 0.87804174
6.6613381e-16 3.9376521 0.87175649
3.5249686 3.9317794 0.87858593
1.74 3.9882545 0.87087786
1.74 4.0052853 0.87931359
6.6613381e-16 4.0175471 0.87265265
1.8425624 4.0149999 0.87536621
7.7599692 4.0827107 0.8753019
3.5249691 4.154067 0.87651694
7.7599688 4.1513186 0.87095588
0.23999999 4.2064681 0.87778115
6.6613381e-16 4.2735605 0.87661213
3.6399689 4.3055863 0.87013113
0.23999999 4.4265575 0.87806147
3.6399689 4.4615679 0.87408614
3.6399689 4.5255485 0.87865883
6.6613381e-16 4.5403261 0.87836373
6.6613381e-16 4.5560203 0.87432557
6.6613381e-16 4.6780963 0.87041843
0.24000001 4.6756907 0.87168056
3.6399689 4.7470555 0.87835729
6.6613381e-16 4.7693214 0.87727457
7.7599688 4.7645769 0.87753576
0.74082744 4.9000001 0.87765318
1.1876528 4.9000001 0.87059963
1.7742922 4.9000001 0.87282854
1.873024 4.9000001 0.87679857
1.9249687 4.9090362 0.87840921
2.8928113 4.9000001 0.87574172
3.0185161 4.9000001 0.87279296
2.8249688 5.019886 0.875736
7.519969 5.0797963 0.87327039
3.6999688 5.1251612 0.87364924
3.6999688 5.1377773 0.87717623
0.28446013 5.1399999 0.87447202
0.73594946 5.1399999 0.87066227
1.222658 5.1399999 0.87400192
1.3230488 5.1399999 0.87434268
1.856969 5.1399999 0.87505132
