# .PCD v0.7 - Point Cloud Data file format
VERSION 0.7
FIELDS x y z
SIZE 4 4 4
TYPE F F F
COUNT 1 1 1
WIDTH 1612
HEIGHT 1
VIEWPOINT 0 0 0 1 0 0 0
POINTS 1612
DATA ascii
6.6613381e-16 9.3583488 2.0646818
0.23999999 9.3754749 2.0613089
6.6613381e-16 9.3901176 2.066416
6.6613381e-16 9.4416733 2.0610209
3.6999688 9.5693455 2.0638618
6.6613381e-16 9.6068535 2.0688708
0.23999998 9.6487999 2.0607285
7.9599686 9.7241859 2.0636079
0.24000001 9.7353973 2.0630243
3.5249689 9.9002199 2.0674767
7.7199688 9.9041338 2.0622332
6.6613381e-16 9.9146023 2.0689714
3.5249691 9.9134588 2.0680213
6.6613381e-16 9.9645519 2.0627568
5.650197 10.029999 2.0678105
0.37934417 10.03 2.0615797
0.81729919 10.03 2.065608
0.9357788 10.03 2.0662611
1.0462282 10.03 2.0616298
1.158334 10.03 2.0669372
1.2552294 10.03 2.0603764
1.3109689 10.03 2.0697536
1.4491035 10.03 2.0625026
1.8165252 10.030001 2.0675929
2.0250661 10.03 2.061662
2.435277 10.030001 2.061861
6.2992096 10.03 2.0668225
7.1842165 10.03 2.0630033
7.5280848 10.03 2.0674369
3.8199687 10.077461 2.0652893
3.4549687 10.089091 2.0697637
0.23999999 10.107049 2.069977
4.8999686 10.112577 2.0640023
0.23999999 10.128049 2.0659294
7.9599686 10.135714 2.0651379
6.6613381e-16 10.165636 2.0626931
0.24000001 10.165913 2.0693235
3.8199687 10.19895 2.0623751
7.7199688 10.200045 2.0602646
0.23999999 10.244407 2.0661767
0.75154841 10.27 2.0637667
1.0895152 10.27 2.0630121
1.3022919 10.27 2.0636811
1.9525369 10.27 2.0630801
3.5804598 10.27 2.0661125
3.6230426 10.27 2.0698636
3.6791692 10.27 2.0624223
5.5449624 10.27 2.0676088
5.6844053 10.27 2.0675232
5.7945042 10.27 2.0681376
5.939219 10.27 2.0698369
6.1210666 10.27 2.06306
6.233459 10.27 2.0678749
6.269351 10.27 2.0655217
0.23999998 10.294771 2.0640359
3.6999691 10.292934 2.0651851
3.6999688 10.402309 2.0658832
3.5249689 10.429191 2.0677404
0.23999999 10.567949 2.0604692
7.9599686 10.583079 2.0677724
0.23999999 10.611988 2.0630865
3.6999688 10.630965 2.0610955
7.9599686 10.718689 2.0618145
7.7199688 10.780567 2.0623531
0.24000001 10.79893 2.06672
6.6613381e-16 10.815334 2.066601
7.7199688 10.825434 2.0640504
6.6613381e-16 11.006565 2.0614748
7.9599686 11.063184 2.0609267
6.6613381e-16 11.11986 2.0617268
7.9599686 11.17098 2.061981
0.23999999 11.222119 2.0644357
0.23999999 11.23086 2.0637908
3.5249689 11.257473 2.0676353
7.9599686 11.258552 2.0696826
0.23999999 11.299178 2.0625048
3.6999688 11.332264 2.0639515
0.23999999 11.343513 2.060853
0.23999999 11.355043 2.0624523
3.6999688 11.434938 2.0630112
7.7199688 11.457949 2.0686712
0.23999998 11.463601 2.0619171
6.6613381e-16 11.593399 2.0647058
7.7199688 11.684353 2.0690231
3.5249686 11.705624 2.0695086
7.9599686 11.711253 2.0655386
7.9599686 11.804935 2.0667913
3.6999688 11.83396 2.0632851
7.7199688 11.84865 2.0627346
3.6999686 11.889201 2.0667644
3.5249689 11.904898 2.0665808
6.6613381e-16 11.914179 2.0609584
7.9599686 11.913913 2.0626788
7.7199688 11.9795 2.0617378
3.6999688 12.008351 2.0617714
7.9599686 12.092237 2.0614893
3.5249689 12.129893 2.0648253
0.23999999 12.167894 2.062567
7.9599686 12.174079 2.061353
3.6999688 12.301576 2.0635676
6.6613381e-16 12.329412 2.0686994
3.6999688 12.33081 2.0654709
0.23999999 12.376185 2.0612776
0.23999998 12.417821 2.0653551
7.9599686 12.417516 2.0624113
7.7199688 12.420486 2.0612762
0.056188073 12.515001 2.0648482
0.1220412 12.515 2.0672326
0.14138718 12.515 2.0657711
7.9599686 12.567566 2.0688941
7.9599686 12.645423 2.0683308
7.7199688 12.856914 2.0694213
3.5249686 12.889107 2.0617657
0.013807097 13.014999 2.0636506
3.5249689 13.04864 2.0692222
7.9599686 13.083159 2.0620086
6.6613381e-16 13.184341 2.0636489
0.054757163 13.2 2.0644474
0.15278462 13.2 2.0690401
0.42500001 13.200906 2.0689676
1.6762705 13.200001 2.0625627
2.0474524 13.200001 2.0609803
2.3481138 13.2 2.0649412
3.0371704 13.200001 2.0658505
3.416852 13.2 2.0668845
3.4576964 13.2 2.0609231
3.5649612 13.200001 2.0644844
5.2876391 13.2 2.0689466
6.1882858 13.2 2.0638919
7.6511564 13.2 2.069989
0.42500001 13.421831 2.0645247
2.2626717 13.439999 2.0627856
3.4700851 13.439999 2.0657735
3.7933519 13.439999 2.0645194
0.041891765 13.44 2.0634854
0.41445014 13.44 2.0679085
1.2908977 13.44 2.0679269
2.4508891 13.44 2.0623622
2.9768839 13.44 2.0621862
3.4947681 13.44 2.0632739
3.6654925 13.44 2.0695004
4.407877 13.44 2.0619819
4.656177 13.44 2.0620587
7.6680279 13.440001 2.0669191
7.6986914 13.44 2.0650311
7.8459873 13.440001 2.0673459
0.052685924 2.7533531e-14 2.0724776
0.29541382 6.2172489e-15 2.0737426
2.872699 6.2172489e-15 2.0795083
2.9058299 6.2172489e-15 2.0746236
3.1240909 6.2172489e-15 2.073899
3.320962 6.2172489e-15 2.0797172
3.4136186 6.2172489e-15 2.0728126
3.7348037 6.2172489e-15 2.0744848
4.1237135 6.2172489e-15 2.0714831
4.1611943 6.2172489e-15 2.0792122
7.3818121 6.2172489e-15 2.0733783
7.8697419 6.2172489e-15 2.071553
7.9599681 0.024926133 2.0731175
0.23999999 0.062033709 2.071079
4.1699686 0.066980436 2.0712187
7.269969 0.08296077 2.0723403
7.9599686 0.1211656 2.0700295
0.23999999 0.16490276 2.0765879
0.24000001 0.21733215 2.0733232
3.3851547 0.23999998 2.0727651
0.3503288 0.23999999 2.0736794
0.51131511 0.23999999 2.0756776
2.984041 0.23999999 2.0775077
3.0318317 0.23999999 2.070905
3.3613362 0.23999999 2.077935
3.5639253 0.23999999 2.0790741
4.0058393 0.23999999 2.0735738
4.0986643 0.23999999 2.074358
7.2859235 0.23999999 2.0727408
0.13872048 0.27500001 2.0791183
3.5249689 0.37748569 2.0708332
7.7199688 0.39589036 2.075949
7.9599686 0.50306523 2.0733082
3.5249686 0.58034229 2.0780067
7.9599686 0.5921495 2.0799959
3.6999688 0.67273062 2.0794051
7.9599686 0.87281942 2.0765712
0.12692103 1.205 2.0794535
7.9599686 1.635146 2.0716395
7.9599686 1.8295088 2.0715303
3.5249689 1.839983 2.0720794
7.7199688 1.8763503 2.0766492
7.7199688 1.9049195 2.0760221
7.7199688 1.9368854 2.0704086
3.6999686 2.093245 2.0729368
3.6999688 2.1358705 2.0733402
6.6613381e-16 2.214865 2.070821
7.7199688 2.2754896 2.0762222
3.6999688 2.3525014 2.0786207
7.7199688 2.3969913 2.0797474
7.7199688 2.4003124 2.0709252
3.5249691 2.4429419 2.0709012
7.7199688 2.4940963 2.0723717
7.7199688 2.5551398 2.0799625
3.6999688 2.6688437 2.0750196
3.5249689 2.7370787 2.0744064
7.7199688 2.7789938 2.0784631
3.6999688 2.8455491 2.071187
3.5249689 2.8542309 2.0754101
3.6999688 2.8558354 2.0773761
3.6999688 2.9556808 2.0721383
6.6613381e-16 3.1421936 2.075932
0.23999998 3.1614175 2.0702629
3.6999688 3.2505896 2.0743182
7.9599686 3.2646592 2.0707054
0.24000001 3.2811151 2.0761659
3.6999688 3.281898 2.0718861
7.9599686 3.3543768 2.0735178
3.5249686 3.3925195 2.076252
6.6613381e-16 3.4024968 2.0721858
7.7199688 3.4773088 2.0710733
6.6613381e-16 3.5314481 2.0763717
3.6999688 3.5695877 2.0718968
7.7199688 3.7605627 2.0736296
6.6613381e-16 3.8272283 2.0788412
7.7199688 3.8293934 2.0724361
3.5249691 3.8389819 2.0760708
1.2975 3.8931909 2.0714536
0.24000001 3.900301 2.0752778
3.5249689 3.9294279 2.0793607
7.7199688 3.9266605 2.0776505
3.5249689 4.0653663 2.0716331
6.6613381e-16 4.1216583 2.0701933
7.7199688 4.2191129 2.0729411
3.5249689 4.2787771 2.0706348
7.9599686 4.3277578 2.0705802
0.24000001 4.3733897 2.0721841
3.5249689 4.3926754 2.072706
7.9599686 4.4721923 2.0775476
3.5249689 4.5262661 2.0760405
7.7199688 4.5743933 2.079289
3.6399689 4.591114 2.0799186
3.6399689 4.6007276 2.0718813
3.5249689 4.7158995 2.0795953
1.2230892 4.8999996 2.0707574
0.38223144 4.9000001 2.074976
0.95547813 4.9000001 2.0794592
0.98879325 4.9000001 2.0796351
3.0343709 4.9000001 2.0780728
3.0910249 4.9000001 2.072125
3.6092134 4.9000006 2.0754423
1.9249687 4.9948025 2.0756748
0.24000001 5.0032406 2.0709622
1.9249688 5.1001277 2.0784817
1.5893506 5.1399994 2.0760703
0.43379933 5.1399999 2.0718939
0.68876469 5.1399999 2.0729406
1.1042049 5.1399999 2.0786843
1.1985093 5.1399999 2.0713315
1.7141744 5.1399999 2.0750582
3.1646211 5.1399999 2.071177
3.271929 5.1399999 2.0786161
3.6999688 5.177176 2.0763259
6.6613381e-16 5.2516861 2.077173
7.9599686 5.25526 2.0747497
6.6613381e-16 5.338943 2.0770121
3.6999688 5.4133945 2.0739322
0.24000001 5.4436622 2.0749063
3.5249686 5.4756017 2.0727346
6.6613381e-16 5.4958014 2.0781722
7.7199688 5.4948297 2.0744443
0.24000001 5.5439806 2.0764692
3.6999688 5.5932221 2.0790033
6.6613381e-16 5.6867456 2.0752237
0.24000001 5.7470655 2.0795846
0.23999999 5.7507362 2.0724337
7.9599686 5.7681227 2.0768819
6.6613376e-16 5.7795267 2.0726602
3.5249689 5.860497 2.0737867
6.6613381e-16 5.8996325 2.0790405
0.23999999 5.9247031 2.0709164
7.7199688 6.0495715 2.0786602
3.6999688 6.0673952 2.0755293
3.6999688 6.0820198 2.0791471
3.6999688 6.126555 2.0762806
3.6999688 6.1822834 2.0724933
6.6613376e-16 6.196682 2.0714035
7.7199688 6.2224603 2.0794716
6.6613381e-16 6.2474298 2.0706987
6.6613381e-16 6.3907847 2.0762637
6.6613381e-16 6.4741392 2.0705602
0.23999999 6.5637331 2.0724525
3.5249691 6.7098823 2.0759282
3.6999688 6.7129469 2.071445
3.5249686 6.8689585 2.0701208
3.6999688 6.9387765 2.0718653
6.6613381e-16 6.9525595 2.0711839
3.6999688 7.0985503 2.0752769
6.6613381e-16 7.1838889 2.070478
7.7199688 7.2835631 2.0735946
3.5249686 7.3797026 2.0707109
7.7199688 7.4056973 2.0727315
3.6999688 7.4259701 2.0734394
3.5249686 7.4656525 2.075629
6.6613381e-16 7.5768671 2.0709884
1.6440864 7.665 2.0701749
2.5656574 7.665 2.0749822
2.5890968 7.665 2.0771165
2.7407103 7.665 2.0722439
3.4628215 7.665 2.0796106
7.9599681 7.7420583 2.0704327
3.5249689 7.7692695 2.0719075
0.34975046 7.7799997 2.0712087
0.38134563 7.7799997 2.0758164
0.6700111 7.7800007 2.0781322
1.1087366 7.7800002 2.0702817
1.5259904 7.7799997 2.0787926
1.690778 7.7799997 2.0765493
1.7218747 7.7799997 2.0723622
1.7589201 7.7799997 2.0783973
2.3397524 7.7799997 2.074254
3.5083838 7.7799997 2.0789475
7.9599686 7.8792181 2.0735552
6.6613381e-16 7.995717 2.0705304
3.5249686 8.2016888 2.0718353
0.24000001 8.236969 2.0756099
3.5249691 8.2814102 2.0780034
7.9599681 8.4557047 2.0797837
6.6613381e-16 8.5978527 2.0766203
6.6613381e-16 8.684103 2.0783112
0.23999999 9.0992985 2.0754383
7.7199688 9.0923576 2.0726218
7.7199688 9.1170034 2.0731788
0.23999998 9.2160006 2.0775101
7.9599686 9.2752523 2.0728519
3.5249689 9.4325476 2.0795774
3.6999688 9.4684839 2.074852
7.7199688 9.504446 2.0718787
7.9599686 9.5345678 2.0715144
3.6999688 9.5908203 2.0789199
3.5249686 9.6141472 2.0702903
7.9599686 9.6313505 2.0776734
7.9599686 9.6550531 2.0707929
0.23999999 9.7054825 2.0761497
3.6999688 9.7347031 2.0709369
7.9599686 9.734355 2.0777774
3.5249689 9.7747536 2.0709026
0.24000001 9.7955666 2.0721495
7.9599686 9.8367538 2.0729363
0.24000001 9.8651705 2.0764999
6.6613381e-16 9.9600649 2.0702009
3.5249691 9.9756279 2.0708065
3.7477243 10.029999 2.0720129
5.1467257 10.029999 2.0727854
6.9238453 10.029999 2.0748279
0.85680974 10.03 2.0711515
0.89189041 10.03 2.0752769
2.2032976 10.03 2.0798469
2.3312693 10.03 2.079339
2.4257026 10.030001 2.0752945
2.523371 10.03 2.0766521
3.6227436 10.03 2.0768149
3.6516507 10.030001 2.0757525
3.7487736 10.03 2.0767641
3.8199687 10.034837 2.0775242
5.0981331 10.03 2.0719297
5.7925425 10.03 2.0749931
5.8217497 10.03 2.0779207
5.893877 10.03 2.0763011
5.976017 10.03 2.0778551
6.0298276 10.03 2.0778234
6.2665997 10.03 2.0742002
6.5802174 10.03 2.0746374
6.6567955 10.03 2.0772116
7.4725943 10.03 2.0755246
7.6114621 10.03 2.0727925
0.23999999 10.041951 2.0762146
7.7199688 10.049997 2.0760484
0.23999998 10.053431 2.0712337
7.9599686 10.05169 2.0786936
0.23999999 10.076331 2.0710037
3.4549687 10.081392 2.0737724
0.23999998 10.104295 2.07584
2.5549688 10.234567 2.0749452
3.4549687 10.259239 2.0787268
1.8698031 10.27 2.0722528
2.117373 10.27 2.0703425
3.5249691 10.274421 2.0788057
4.9822364 10.27 2.0719967
5.5495114 10.27 2.0755439
5.8114266 10.27 2.0740726
6.1735888 10.27 2.0760016
6.2789707 10.27 2.074245
6.3450155 10.27 2.0776401
6.3530512 10.27 2.0778587
6.3925323 10.27 2.0728309
6.4674492 10.27 2.071856
6.8178072 10.27 2.0710597
7.7199688 10.345717 2.0771413
3.6999688 10.401578 2.0737917
0.23999999 10.542401 2.0716865
3.6999688 10.557632 2.0724294
3.5249691 10.568114 2.0789607
7.9599686 10.640717 2.0736344
0.23999999 10.651474 2.0797613
0.23999999 10.924461 2.074626
3.5249689 10.960781 2.0705385
6.6613381e-16 11.007655 2.0705929
7.9599686 11.15344 2.0742853
3.5249689 11.211819 2.0700388
3.5249686 11.270458 2.0745068
3.5249686 11.304965 2.0779269
3.5249691 11.411547 2.0731561
0.23999998 11.499236 2.0739572
7.9599686 11.493756 2.0703635
3.5249691 11.503487 2.0788145
7.9599686 11.64318 2.0778348
3.5249686 11.677663 2.0785458
0.23999999 11.851013 2.0775082
3.6999691 11.955788 2.0799248
0.23999998 12.036455 2.0799212
0.23999998 12.169744 2.0715811
0.23999998 12.325285 2.0766726
3.5249686 12.332551 2.0742989
3.6999688 12.384428 2.0753801
7.9599686 12.420897 2.0711517
3.6999688 12.43729 2.0716417
0.24000001 12.459409 2.0718889
7.7199688 12.459113 2.0793288
0.054296378 12.515 2.0741043
0.18987581 12.515001 2.0703616
7.7199688 12.527826 2.0755844
3.6999688 12.734083 2.0775669
3.6999688 12.75497 2.075105
7.7199688 12.958002 2.071774
7.9599686 12.995529 2.079638
7.7199688 13.093159 2.0788686
0.24000001 13.129258 2.0752883
3.6999688 13.120679 2.0732043
1.8322674 13.199999 2.0735531
3.3434377 13.199999 2.0737424
7.7697802 13.199999 2.0767488
1.8772529 13.2 2.0773766
3.5183253 13.2 2.0777845
4.3815656 13.2 2.0777273
4.639482 13.2 2.0760834
4.6565156 13.2 2.0761182
6.6580019 13.200001 2.0787153
7.4671431 13.200001 2.0712066
7.808404 13.2 2.0731623
7.8232098 13.2 2.0763717
7.8463411 13.2 2.0783148
7.9346199 13.2 2.0751882
2.1538327e-14 13.329434 2.0739927
7.9599686 13.345804 2.0722353
7.9599686 13.358882 2.0737545
0.42500001 13.413374 2.0748193
2.0140996 13.439999 2.0772052
4.1917982 13.439999 2.0747039
6.9849682 13.439999 2.0714936
7.1122103 13.439999 2.0703666
0.033158693 13.44 2.0748467
0.095216893 13.44 2.0729671
0.32968298 13.44 2.0758862
2.2274051 13.44 2.0795436
2.4981508 13.44 2.0789723
4.1869602 13.44 2.0775428
4.4748631 13.440001 2.0706871
6.8561678 13.44 2.0751543
6.946743 13.440001 2.079077
7.3354712 13.440001 2.0775895
0.51563549 6.2172489e-15 2.0811911
2.79 0.020993141 2.0891988
7.269969 0.026816998 2.0817704
0.70999998 0.060055517 2.0800533
0.23999999 0.070617482 2.0896058
0.24000001 0.088320293 2.0851624
0.23999999 0.18439853 2.087584
3.1612449 0.23999998 2.0814128
3.3884482 0.23999998 2.0840878
3.532934 0.23999998 2.0857384
3.6859674 0.23999999 2.0886178
3.9316044 0.23999999 2.0849352
3.956825 0.23999999 2.0802279
4.0980258 0.24000001 2.0821528
7.6623192 0.24000001 2.0842502
7.8311272 0.23999999 2.0892978
3.6999688 0.36587724 2.0895741
3.5249689 0.64654231 2.0804024
7.9599686 0.77932507 2.0878968
7.7199688 0.86131108 2.0876844
7.9599686 0.87202919 2.0851219
0.1876303 1.205 2.0803719
7.9599686 1.3595613 2.0809741
0.23999999 1.4425168 2.0822701
0.23999998 1.5155984 2.0879378
0.24000001 1.581549 2.086308
3.5986202 1.58 2.0848775
7.7199688 1.6336004 2.0890696
0.23999999 1.7112545 2.0829296
7.9599686 1.8035667 2.0870235
3.6999688 1.83729 2.0805781
7.7199688 1.9168388 2.0840924
7.7199688 1.9212179 2.0876019
6.6613381e-16 1.9338787 2.0825684
6.6613381e-16 2.014564 2.0824966
3.6999688 2.0360653 2.0888481
7.9599686 2.1488805 2.0881884
7.7199688 2.1709154 2.0871556
3.5249689 2.2899456 2.0888844
7.9599686 2.2830343 2.0869288
7.7199688 2.4460583 2.0811133
3.6999688 2.517267 2.0864666
0.23999998 2.6235228 2.0851572
7.9599686 2.7002478 2.0823953
3.5249686 2.7120798 2.0826769
3.6999688 2.7323208 2.0882387
7.9599686 2.7698455 2.0887389
7.9599686 2.7949586 2.0808554
3.6999688 2.9230442 2.0843246
7.7199688 2.9891107 2.0835302
3.5249691 3.0636628 2.0814352
3.6999688 3.1817813 2.0869598
3.5249691 3.2028027 2.0802522
0.23999999 3.2405667 2.0824203
6.6613381e-16 3.2909684 2.0851064
3.5249689 3.3583171 2.0894058
7.9599686 3.3555741 2.0878532
0.23999998 3.3948319 2.0874653
3.6999688 3.4020591 2.0815709
7.9599686 3.451854 2.0863209
6.6613381e-16 3.4770312 2.0832763
3.6999688 3.6901677 2.0827186
3.5249689 3.752738 2.0845339
1.4214864 3.7850003 2.0853071
1.6992854 3.7850001 2.0848553
1.2975001 3.8401043 2.0875037
6.6613381e-16 3.8611159 2.0833962
1.4025819 3.9000001 2.0804167
3.5380993 3.8999999 2.0817039
7.9599681 3.914279 2.0852647
0.24000001 3.9567378 2.083298
3.6399689 3.9530561 2.0827034
7.9599686 3.9666684 2.0840409
0.24000001 3.9789364 2.0875707
3.6399689 3.9739721 2.0829704
1.855 4.0040917 2.0862756
0.24000001 4.0102487 2.0847933
3.5249689 4.0238185 2.081121
3.5249686 4.0487752 2.0817068
7.9599686 4.0410886 2.0826416
6.6613381e-16 4.0877738 2.0828204
3.5249686 4.157937 2.0852225
7.7199688 4.2934179 2.0858791
7.9599686 4.2990408 2.0834703
7.9599686 4.412529 2.0808244
3.5249691 4.4410267 2.0811658
0.23999998 4.4910064 2.0853617
3.5249686 4.5407648 2.0830305
3.5249691 4.5828228 2.0885067
3.5249686 4.6112857 2.0808115
6.6613381e-16 4.7061286 2.0824342
7.9599686 4.7202921 2.0843639
0.23999998 4.7538986 2.0871685
3.5249691 4.780725 2.0824718
7.7199688 4.8194923 2.0883622
3.5249686 4.8338628 2.0852578
1.855 4.8851118 2.0838206
0.26132712 4.9000001 2.0894234
0.90204042 4.9000001 2.083818
0.98285741 4.9000001 2.0837045
3.3893719 4.9000001 2.0856569
7.7199688 4.9123697 2.0801375
0.23999998 4.9778399 2.0817118
7.9599686 4.9723058 2.0855231
1.9249687 5.0083942 2.0895882
1.9249687 5.0707989 2.0816824
3.6999688 5.0876918 2.0813832
7.7199688 5.0846901 2.0899942
1.3263719 5.1399994 2.0836341
3.3829854 5.1399994 2.0840092
6.6613381e-16 5.1422939 2.0809436
1.0596782 5.1399999 2.0833254
1.4720315 5.1399999 2.0854094
3.1469398 5.1399999 2.0871732
3.6307271 5.1400003 2.082952
3.6999688 5.212604 2.0853586
3.5249686 5.2673492 2.0874622
3.6999688 5.2772875 2.0817685
7.9599686 5.4268804 2.0850861
6.6613381e-16 5.5153761 2.0825231
7.9599686 5.6426458 2.0857484
7.7199688 5.6603379 2.0887561
7.7199688 5.7756901 2.0834827
3.6999688 5.8627901 2.08409
3.5249689 5.8816614 2.0890968
3.6999688 5.9037008 2.0894175
3.5249689 6.0363741 2.0870895
7.7199688 6.1287508 2.0875771
0.23999999 6.1665373 2.0896933
0.24000001 6.2211709 2.0855696
6.6613381e-16 6.3058734 2.0891016
0.23999998 6.3385258 2.0881805
7.7199688 6.3438315 2.0884919
6.6613381e-16 6.3730555 2.0823519
3.6999688 6.3749981 2.085042
3.5249691 6.4785032 2.0876467
7.7199688 6.6337461 2.080286
0.23999999 6.7003937 2.0846725
7.9599686 6.7440052 2.0814497
3.5249691 6.7589121 2.0839119
7.7199688 6.8067861 2.0859189
7.7199688 6.844543 2.0851254
6.6613381e-16 6.9534569 2.0836914
3.6999688 6.9688535 2.0843427
0.24000001 6.9821677 2.0862219
3.5249686 6.9875431 2.0849538
7.9599686 6.9808912 2.0849547
3.6999688 7.0098267 2.088099
3.6999688 7.0121574 2.0880368
0.23999998 7.0423508 2.0813804
7.7199688 7.0411563 2.0847251
7.9599686 7.1046991 2.0836689
3.5249686 7.1678181 2.0839226
3.6999688 7.2111025 2.0800021
3.5249689 7.4365945 2.0893817
3.5249691 7.5255437 2.0833583
0.24000001 7.5665021 2.081089
0.78873563 7.665 2.0819654
0.90808105 7.665 2.0819864
1.5444058 7.665 2.0825269
1.8479276 7.665 2.0837076
2.0842505 7.665 2.0803578
2.6459515 7.665 2.0800498
2.716485 7.665 2.0884562
3.015264 7.665 2.0873051
3.0702338 7.665 2.0807397
3.219547 7.665 2.0815201
0.23999998 7.6873927 2.0839331
0.23999998 7.7397366 2.0810542
7.9599686 7.7509255 2.0813665
0.30678716 7.7800002 2.0856543
0.62535715 7.7799997 2.0888779
2.5051961 7.7800002 2.0800645
2.7079647 7.7800002 2.0838437
2.8334293 7.7800007 2.0865378
3.2157283 7.7799997 2.0814254
7.7199688 7.8282847 2.0842946
7.9599686 7.8458314 2.0809042
7.7199688 7.86092 2.0897276
7.7199688 7.9972086 2.0874407
7.7199688 8.0879927 2.0806017
3.6999688 8.2318726 2.0821846
7.7199688 8.3154364 2.0853701
3.6999688 8.3953781 2.0885363
6.6613381e-16 8.4466915 2.0895894
3.5544872 8.5 2.0888169
3.5816011 8.5 2.0874202
7.9599686 8.5800648 2.0877919
0.24000001 8.8550406 2.086148
7.9599686 8.9429092 2.0887973
7.7199688 8.9833097 2.0825741
6.6613381e-16 9.3263321 2.0838153
0.24000001 9.3274212 2.0808499
0.23999998 9.3615351 2.0844548
7.7199688 9.3818846 2.0810916
7.9599686 9.4047117 2.0895214
3.5249691 9.5271177 2.0876398
7.7199688 9.5444393 2.0847182
3.6999688 9.5619602 2.086292
3.6999688 9.587369 2.0823298
3.5249686 9.6338911 2.0867562
3.6999688 9.6369133 2.0890164
0.23999999 9.7465744 2.0860424
7.7199688 9.8020477 2.0814638
0.23999999 9.8552933 2.0827236
3.5249691 9.88554 2.0894995
0.23999998 10.008349 2.0877013
6.6613381e-16 10.02311 2.0890591
1.4302828 10.029999 2.0874412
1.345479 10.03 2.0887058
1.3992348 10.030001 2.0899315
1.6223147 10.03 2.0883
1.9713337 10.030001 2.084904
2.3707657 10.030001 2.0887411
3.5546064 10.03 2.0854306
3.5933616 10.03 2.0842557
3.6401386 10.03 2.0833657
5.5692182 10.03 2.0818119
5.7514029 10.030001 2.0887535
5.8225436 10.03 2.0805798
5.9828043 10.03 2.0834651
6.5066347 10.03 2.0851865
3.4549689 10.06615 2.0805292
0.24000001 10.090905 2.082087
4.8999686 10.111193 2.0819213
3.4549687 10.17487 2.0894811
0.23999999 10.184872 2.0811055
4.8999686 10.190325 2.0840077
0.5845685 10.27 2.0838349
0.71758366 10.27 2.0869732
0.74687147 10.27 2.0832291
1.0557193 10.27 2.0863011
1.2731862 10.27 2.0867574
5.2101598 10.27 2.0800498
6.235229 10.27 2.0808463
6.9096298 10.27 2.0846767
3.5249691 10.49116 2.0872982
0.23999999 10.652381 2.0871732
3.5249691 10.683837 2.0847137
7.7199688 10.715708 2.0871429
0.23999998 10.807864 2.0835357
7.7199688 10.803272 2.0895839
6.6613381e-16 10.816935 2.0893085
6.6613381e-16 10.848227 2.0837667
0.23999998 10.906404 2.0876408
3.5249689 10.991952 2.086797
6.6613381e-16 11.016438 2.0811648
7.9599686 11.1298 2.0832143
7.7199688 11.193796 2.088017
0.23999998 11.25835 2.0898964
7.7199688 11.25971 2.0801232
7.7199688 11.314604 2.0821226
6.6613381e-16 11.385377 2.0821333
7.9599686 11.448616 2.0831656
7.9599686 11.456011 2.0839329
3.5249686 11.533353 2.0836015
6.6613381e-16 11.566942 2.0877233
7.7199688 11.578964 2.0804017
3.6999688 11.599173 2.0845778
3.6999688 11.919729 2.0816796
7.9599686 11.968932 2.085207
7.9599686 11.995829 2.0820329
3.5249689 12.006315 2.0874839
7.9599686 12.008197 2.0889118
3.5249686 12.035923 2.0844481
7.7199693 12.139044 2.0882597
7.7199688 12.264467 2.0817668
7.9599686 12.269431 2.0808988
0.23999999 12.290512 2.0847208
7.9599686 12.323966 2.0863364
3.6999688 12.362494 2.088037
7.7199688 12.368197 2.0837052
7.9599686 12.451947 2.0836229
6.6613381e-16 12.486791 2.084847
0.054420333 12.515 2.0853062
7.9599686 12.592006 2.0855613
7.7199688 12.832555 2.0827076
7.9599686 12.932488 2.0896158
7.9599686 13.004458 2.0816717
0.048653226 13.015 2.0893598
0.19241275 13.015 2.0868526
7.7199688 13.055312 2.089051
2.9425817 13.199999 2.089952
4.059391 13.199999 2.0879154
7.7199688 13.195299 2.0844336
0.0048266584 13.2 2.0821147
0.04173401 13.2 2.0846262
0.17314205 13.2 2.0810342
0.26131722 13.2 2.0892394
1.5164075 13.2 2.0892816
2.7653518 13.200001 2.0887148
4.8339081 13.200001 2.0800507
5.186914 13.2 2.0851634
5.2492805 13.2 2.0850391
7.7991052 13.200001 2.0801682
2.1538327e-14 13.292101 2.0812573
1.255 13.322448 2.0868969
1.255 13.364782 2.0890553
0.18237941 13.439999 2.0829616
1.255 13.436303 2.0846765
4.3568091 13.439999 2.0870743
7.8367271 13.439999 2.0819774
0.31955245 13.440001 2.0840247
0.33256334 13.44 2.088078
1.3265264 13.44 2.0826116
1.3851869 13.440001 2.0803721
2.0695956 13.440001 2.0844202
2.0868216 13.440001 2.0878763
2.6885517 13.44 2.0822198
2.7592978 13.440001 2.0823889
2.8939164 13.44 2.0895708
3.2152128 13.440001 2.080132
3.7518871 13.44 2.0897059
3.9091182 13.44 2.083235
6.4656534 13.440001 2.0869617
6.7879338 13.44 2.0834572
6.9922037 13.44 2.0852134
0.048025288 2.7533531e-14 2.0901165
0.11677286 2.7533531e-14 2.0958796
0.5143525 6.2172489e-15 2.0911305
0.63189489 6.2172489e-15 2.0900626
0.64365184 6.2172489e-15 2.0919816
2.8063996 6.2172485e-15 2.0972226
2.9528451 6.2172485e-15 2.0972266
3.3141413 6.2172489e-15 2.0948999
3.8907938 6.2172489e-15 2.0947528
4.0082703 6.2172494e-15 2.092994
7.4600744 6.2172489e-15 2.0978379
0.24000001 0.05336133 2.094604
7.9599686 0.064240791 2.0988429
0.71000004 0.095883951 2.0904875
4.0051608 0.23999998 2.0902102
7.8366618 0.23999998 2.0973566
0.65724212 0.23999999 2.0965118
3.128649 0.23999999 2.0948844
4.0785198 0.24000001 2.0989945
7.2852883 0.23999999 2.0972574
7.5898752 0.24000001 2.0974519
7.9443049 0.23999999 2.0978541
7.9599686 0.60465509 2.093565
7.959969 0.63076329 2.0914981
7.9599686 0.7944231 2.0948229
7.9599686 0.99342847 2.0902755
7.9599686 1.1706338 2.099647
0.018635817 1.2049999 2.0998747
7.9599686 1.3876408 2.0967278
6.6613381e-16 1.4471347 2.0972197
6.6613381e-16 1.5623975 2.0951068
3.6426728 1.5800002 2.0903518
7.9599686 1.6166399 2.0932465
6.6613381e-16 1.6496229 2.0910611
3.5249689 1.6612271 2.0954242
7.959969 1.6610093 2.0955291
3.5249689 1.7177132 2.0949676
0.23999998 1.7755399 2.0959916
0.23999999 1.7938871 2.0937858
7.7199688 1.8198514 2.0930037
0.24000001 1.8408478 2.0951977
7.9599686 1.8517276 2.0988848
3.6999688 1.8761032 2.0974383
6.6613381e-16 1.8832339 2.098839
7.9599686 1.8896244 2.0951676
6.6613381e-16 1.8987372 2.0968602
7.7199688 2.1994686 2.0941689
0.23999998 2.2163827 2.0962048
3.6999688 2.2102518 2.0965159
0.23999999 2.225615 2.0925844
7.9599686 2.4022791 2.0984857
0.23999998 2.4794686 2.0905461
3.6999688 2.4885507 2.0939147
7.7199688 2.4899111 2.099004
7.7199688 2.6101823 2.0907619
7.9599686 2.669755 2.0972552
3.6999688 2.8591084 2.0926549
3.5249689 3.2182927 2.0978637
7.9599686 3.2497056 2.096333
0.23999998 3.2825849 2.0905385
0.23999998 3.3286653 2.0978131
3.5249691 3.3949594 2.0918913
6.6613381e-16 3.4817543 2.0974762
0.23999999 3.5383861 2.0965819
3.6999688 3.7714376 2.0948584
7.7199688 3.7912753 2.0980036
1.74 3.849566 2.0946901
0.23999999 3.865387 2.0979517
1.2975 3.8716352 2.0977607
6.6613381e-16 3.9155362 2.0997505
3.6399689 3.9445457 2.0983076
1.74 3.9508991 2.0900431
3.6399689 4.0300455 2.0945399
7.9599686 4.050056 2.0947809
6.6613381e-16 4.3379884 2.0941365
3.5249691 4.333209 2.094347
7.7199688 4.4454069 2.0952742
0.23999998 4.5972252 2.0963473
7.7199683 4.6065063 2.095129
7.9599686 4.664135 2.093848
1.8261818 4.7849998 2.0935292
3.5249689 4.8080473 2.090883
7.9599686 4.8362164 2.0926185
1.855 4.8732615 2.0967362
3.5249689 4.8837461 2.0957906
0.42484945 4.9000001 2.0922129
0.55123204 4.9000001 2.0933728
1.2808704 4.9000001 2.0951633
1.43613 4.9000001 2.0966303
1.5103703 4.9000001 2.093127
1.5266718 4.9000001 2.0935929
1.7499033 4.9000001 2.0917923
1.8961152 4.9000001 2.0991139
2.8442495 4.9000001 2.0926216
3.024564 4.9000001 2.0901785
3.6215453 4.9000006 2.0972857
0.24000001 5.0111179 2.0939312
0.24000001 5.0682645 2.0930688
0.38057142 5.1399999 2.0945468
0.39362115 5.1399999 2.0927281
0.70993221 5.1399999 2.098953
1.3861302 5.1399999 2.0993483
3.5745287 5.1399999 2.0994749
0.24000001 5.3313951 2.0982707
7.9599686 5.3500834 2.0993516
0.23999998 5.370182 2.0976849
7.9599686 5.4333816 2.0978317
3.6999688 5.5286546 2.0948021
3.6999688 5.6889834 2.0951369
3.6999688 5.696394 2.0963011
7.7199683 5.6954441 2.0934978
7.9599686 5.7483139 2.0956156
0.23999999 5.9274178 2.0936196
0.24000001 6.0758748 2.097702
6.6613381e-16 6.0946856 2.0959482
7.9599686 6.1203098 2.090054
0.23999998 6.1320291 2.0942373
6.6613381e-16 6.291935 2.091491
3.5249689 6.426424 2.0987849
7.9599686 6.4924879 2.0948918
3.6999688 6.7799726 2.0955403
7.9599686 6.8187423 2.0947394
0.23999999 6.9382033 2.0993397
7.7199688 7.0014601 2.0934193
7.7199688 7.0185809 2.0974984
3.6999688 7.0646048 2.0927606
0.24000001 7.1406212 2.0956094
3.5249689 7.2184911 2.0901105
7.9599686 7.2270722 2.0927711
3.6999691 7.2306914 2.0967062
3.6999688 7.2551603 2.0970469
7.7199688 7.3287883 2.0955777
0.23999999 7.3393846 2.0989046
3.6999688 7.4686484 2.0967345
3.6999688 7.5046287 2.0955253
3.6999688 7.5268764 2.0942717
3.5249686 7.6099005 2.0940156
0.23999999 7.6369367 2.0967731
1.1160512 7.665 2.0972407
1.3861489 7.665 2.0953836
1.3926847 7.665 2.0929403
1.8105597 7.665 2.093487
1.9820449 7.665 2.0929446
2.2289436 7.665 2.0967515
2.440012 7.6649995 2.0971351
2.5673485 7.665 2.0907898
2.7651141 7.665 2.0972879
2.9946706 7.665 2.0959535
3.3713861 7.665 2.0907733
3.5249686 7.7179127 2.0927196
3.5249689 7.7791758 2.0911779
0.69084436 7.7799997 2.0955367
0.86632407 7.7800002 2.0914707
1.6836004 7.7800007 2.0909493
1.8886801 7.7800002 2.0978119
1.9298084 7.7800002 2.0984414
1.9883413 7.7799997 2.0940337
2.2038794 7.7799997 2.0976553
2.6716461 7.7800002 2.0961556
2.8562357 7.7799997 2.0958633
2.8943095 7.7800002 2.0986643
3.1566312 7.7800002 2.0927348
3.5249691 7.8584199 2.0973911
0.23999999 7.8650241 2.0975235
7.7199688 7.9065642 2.0910225
6.6613381e-16 8.0849075 2.0915341
0.23999999 8.0877428 2.0908029
7.7199688 8.1901999 2.0907843
7.7199688 8.2798805 2.0966065
7.9599686 8.3230982 2.0944593
6.6613381e-16 8.401638 2.0982878
7.7199688 8.4420414 2.0986671
7.7199688 8.4953909 2.092844
6.6613381e-16 8.5650558 2.0982661
6.6613381e-16 8.6731644 2.0953674
0.23999999 8.6908731 2.0902152
0.23999999 8.8984451 2.0989933
7.9599686 8.9132624 2.092977
7.9599686 9.1558514 2.0914595
6.6613381e-16 9.1945553 2.0952179
0.23999998 9.338294 2.0922246
3.6265368 9.3999996 2.0914271
3.6999688 9.4200106 2.0997534
3.6999688 9.5854092 2.0929008
7.7199688 9.6865339 2.0933447
0.24000001 9.8422413 2.0919232
3.5249689 9.8410587 2.0936487
6.6613381e-16 9.9133987 2.0921271
3.5249686 9.9941511 2.0940299
7.9599686 10.016583 2.0995896
6.0977578 10.029999 2.0982323
0.55120128 10.03 2.0923505
1.1877812 10.03 2.0947864
1.2242101 10.03 2.0943761
1.5409168 10.03 2.0987122
2.0632024 10.03 2.0955472
2.3644416 10.03 2.0906937
3.4549687 10.039964 2.0922604
3.6311326 10.03 2.0992277
3.7924733 10.03 2.0961559
4.8999686 10.032296 2.0964007
5.8187971 10.03 2.0906427
5.9941683 10.03 2.0993786
6.5920544 10.03 2.0962996
6.8085146 10.03 2.0957196
6.8683066 10.03 2.0953488
6.9712238 10.03 2.0916116
7.1261139 10.03 2.0985522
7.3775539 10.03 2.0918834
7.3903122 10.03 2.0902357
7.7199688 10.038571 2.0902243
3.4549687 10.055548 2.0947881
7.9599686 10.053372 2.0965345
0.24000001 10.060339 2.0930371
7.7199688 10.06773 2.0937409
7.7199683 10.176888 2.0978169
7.7199688 10.212217 2.0903409
7.7199688 10.268213 2.0989327
0.80209029 10.27 2.0982783
1.805632 10.27 2.0971019
1.9138649 10.27 2.0931463
3.701673 10.27 2.0952463
4.907021 10.27 2.0947139
5.0958099 10.27 2.0913165
5.2500086 10.27 2.0926938
5.2782383 10.27 2.0947709
5.9218588 10.27 2.0935528
6.2597675 10.27 2.095073
6.314796 10.27 2.0902855
6.5002699 10.27 2.0981057
7.603477 10.27 2.0983434
3.5249689 10.300381 2.0931747
3.6999688 10.421965 2.0913358
6.6613381e-16 10.468644 2.0955796
3.6999688 10.491782 2.0955067
6.6613381e-16 10.623813 2.0947638
7.7199688 10.799382 2.0965192
0.23999999 10.802662 2.0912642
6.6613381e-16 10.864072 2.0991378
7.9599686 10.942975 2.0914831
7.9599686 11.009494 2.0973263
3.5249689 11.179474 2.0932114
7.9599686 11.228379 2.0904768
7.9599686 11.238312 2.0901401
7.9599686 11.387358 2.091114
3.6999688 11.462405 2.0948663
0.23999999 11.494769 2.0953293
3.6999688 11.53244 2.0922878
6.6613381e-16 11.560521 2.0976181
0.23999998 11.734228 2.0976484
7.9599686 11.92516 2.0923483
0.23999999 12.007705 2.0955725
3.5249691 12.008959 2.0941739
0.23999999 12.088102 2.0988238
7.9599686 12.183617 2.0992277
3.6999688 12.247328 2.0931523
7.7199688 12.247794 2.0992413
7.9599686 12.285067 2.098228
3.6999688 12.372756 2.0919111
3.5249686 12.381388 2.091723
7.7199688 12.459687 2.0952234
7.7199683 12.567676 2.0920434
3.6999688 12.649217 2.094171
3.5249689 12.746128 2.0915468
3.5249689 12.752639 2.093878
3.5249689 12.834517 2.0980008
0.17758642 13.015 2.0952039
0.24000001 13.090126 2.0960863
0.23999999 13.171356 2.0950196
0.30140528 13.199999 2.0912097
3.08705 13.199999 2.0903001
6.837244 13.199999 2.0968986
7.4494495 13.199999 2.0971217
0.13051745 13.2 2.0904422
0.39322105 13.2 2.0992868
2.2561421 13.2 2.0915461
3.4175353 13.2 2.0927372
4.4300089 13.2 2.0930591
4.6689224 13.2 2.0905266
4.740591 13.2 2.0966597
4.8437152 13.2 2.0964148
5.1225195 13.2 2.099649
6.5562811 13.200001 2.0972106
7.7044835 13.2 2.0932248
7.7357063 13.200001 2.0991018
7.918932 13.2 2.0994148
0.42500001 13.304974 2.0948987
5.3449688 13.359026 2.0913138
2.1538327e-14 13.374272 2.093605
1.846751 13.439999 2.0985467
3.9713132 13.439999 2.0940869
6.8066392 13.439999 2.0948315
2.06533 13.440001 2.0933712
5.1806908 13.440001 2.0953436
6.7843561 13.440001 2.0936322
7.2552519 13.440001 2.0926015
7.4937449 13.440001 2.0963359
7.6542721 13.44 2.0938282
0.17353524 2.7533531e-14 2.1020994
0.63735646 6.2172494e-15 2.1014342
3.7589157 6.2172489e-15 2.105516
4.0998712 6.2172489e-15 2.1079874
7.269969 0.0052676438 2.1075246
7.9097066 6.2172489e-15 2.1078868
7.9434834 6.2172489e-15 2.1058326
0.23999999 0.040883616 2.1023319
0.23999999 0.097327381 2.1070724
4.1699686 0.1163763 2.1018727
0.23999998 0.18164699 2.1035371
3.9218783 0.23999998 2.1035104
7.9563937 0.23999998 2.106827
0.32600909 0.23999999 2.1017346
3.1237097 0.23999999 2.1044204
3.6886737 0.23999999 2.1012356
3.8768981 0.24000001 2.1091743
4.0246749 0.24000001 2.1018033
7.3753777 0.24000001 2.1055465
7.6101828 0.24000001 2.1057656
7.7199688 0.46198028 2.1038606
7.7199688 0.5180698 2.1024537
7.7199688 0.65779293 2.1036913
7.9599686 0.66854894 2.1002967
3.6400204 0.68000001 2.1071534
7.7199688 1.0552645 2.1051922
0.051152859 1.205 2.1045411
0.13389422 1.205 2.1003876
6.6613381e-16 1.4748136 2.1063926
3.5288966 1.58 2.1045229
6.6613381e-16 1.6125345 2.1001697
7.9599681 1.6137741 2.1055915
3.6999688 1.6336854 2.1032789
3.5249689 1.8264773 2.1012046
7.7199688 2.1065111 2.10887
0.23999998 2.1136999 2.1061499
7.9599686 2.3014693 2.1035025
0.23999998 2.3398123 2.1038404
0.24000001 2.4108644 2.1066222
3.6999688 2.8445768 2.1037664
7.7199688 2.9197733 2.1077545
3.6999688 2.9865794 2.1097455
7.9599686 3.0109015 2.1041143
0.23999998 3.1053839 2.1057496
3.5249689 3.3220661 2.1014943
7.7199688 3.3815639 2.1065063
7.9599686 3.4027548 2.101289
3.6999688 3.5299807 2.1014774
3.6999688 3.5849414 2.1038156
0.23999999 3.6710663 2.1048379
3.5249691 3.7725542 2.1015749
1.373228 3.7850001 2.1056635
7.9599686 3.8130887 2.1096516
7.7199688 3.8266094 2.1025977
1.5230012 3.9000001 2.109684
3.5249689 3.9096546 2.1030917
3.5349681 3.9000001 2.1068773
3.6711261 3.9000001 2.1048205
7.9599686 3.9573052 2.108777
7.9599686 3.9610424 2.1015739
7.9599686 3.975389 2.1001146
3.5249689 4.1807342 2.108536
7.9599686 4.2233758 2.1051397
3.5249686 4.2382536 2.1085744
7.7199688 4.2771254 2.1013618
3.5249691 4.3554726 2.1075704
6.6613381e-16 4.3680005 2.104856
3.6399689 4.422502 2.1010151
3.5249689 4.5295258 2.1087198
3.5249689 4.6080637 2.1079178
6.6613381e-16 4.616004 2.1008482
3.5249686 4.7970028 2.1070619
3.5249689 4.8761339 2.1004534
0.2539508 4.9000001 2.1083403
0.46028829 4.9000001 2.1013603
1.3191185 4.9000001 2.1030755
3.5494816 4.9000001 2.1031482
7.9599686 4.9185734 2.1012299
1.9249688 4.9463286 2.1061487
2.8249688 4.9668097 2.1040156
0.23999999 4.9958148 2.1042972
3.6999688 5.0190573 2.1019111
3.6999688 5.0401258 2.1062453
3.6999688 5.0741205 2.1022716
6.6613387e-16 5.1250143 2.1036839
0.32180166 5.1399999 2.1045742
0.53561896 5.1399999 2.1046746
1.1222333 5.1399999 2.1052742
3.1397426 5.1400003 2.1079805
3.6787643 5.1400003 2.1096334
0.23999999 5.39533 2.1076374
3.5249686 5.3970633 2.1026247
3.5249689 5.4112663 2.1050806
7.7199688 5.4828343 2.1085911
3.6999688 5.5236521 2.1020975
7.9599686 5.5226536 2.1051884
7.7199688 5.5873666 2.1023438
7.7199688 5.5960274 2.1004314
7.9599686 5.6077471 2.1072121
0.24000001 5.6425209 2.1092277
7.9599686 5.6533556 2.1012883
0.23999999 5.6987367 2.1024804
7.9599686 5.741384 2.1037998
6.6613381e-16 5.7660217 2.1084948
6.6613381e-16 5.8017645 2.1014318
6.6613381e-16 5.9469004 2.1048033
0.23999999 5.969121 2.1018794
7.7199688 6.0958223 2.109931
7.7199688 6.2369356 2.1042175
7.7199688 6.5230279 2.1087785
3.5249686 6.5456715 2.1023233
3.6999688 6.5859518 2.1082349
6.6613376e-16 6.7346158 2.1090853
6.6613381e-16 6.7663107 2.1009355
0.23999998 6.7901731 2.1025343
3.6999688 6.7930021 2.1085713
3.6999688 7.0701952 2.1074078
6.6613381e-16 7.1136231 2.1040766
6.6613381e-16 7.2141504 2.1004679
3.6999686 7.2473979 2.1030557
3.5249691 7.380064 2.1086569
3.5249689 7.4614687 2.104346
6.6613381e-16 7.4771743 2.109725
3.6999688 7.4825869 2.1076212
6.6613381e-16 7.4914227 2.1065333
7.9599686 7.5575066 2.1042066
6.6613381e-16 7.6079044 2.1031621
0.40298715 7.665 2.1096241
0.49303687 7.665 2.1032009
0.59919184 7.665 2.1095979
1.3182684 7.6649995 2.1026006
1.33286 7.665 2.1006999
1.5320318 7.665 2.1059566
1.8223631 7.665 2.1058204
1.9769708 7.665 2.1010089
2.2111046 7.665 2.1031842
2.2699306 7.665 2.1065979
2.5448949 7.665 2.1066368
2.8848243 7.665 2.1039026
3.1669269 7.665 2.1037004
7.7199688 7.6892567 2.1081793
7.7199688 7.7371469 2.1059475
0.26312897 7.7800002 2.1031723
0.3171902 7.7800007 2.1002936
0.63703263 7.7800002 2.1057866
0.97151226 7.7800002 2.1085458
1.49173 7.7800002 2.1092665
1.5690352 7.7800007 2.1009765
1.7979727 7.7800007 2.1046164
1.9221417 7.7799997 2.1098528
2.1372488 7.7799997 2.1013052
3.0444241 7.7800007 2.1083419
6.6613381e-16 7.8534164 2.1001849
7.7199688 7.8547115 2.1069601
6.6613381e-16 7.868454 2.1077204
0.23999998 7.9680448 2.1069264
7.9599686 8.0819368 2.1005793
0.23999999 8.2651844 2.1026959
7.7199688 8.2761564 2.10024
6.6613381e-16 8.2944908 2.1092062
3.5249689 8.314126 2.1096535
6.6613381e-16 8.3381987 2.1039138
3.5249691 8.3434534 2.1094496
7.9599686 8.5792542 2.1001105
6.6613381e-16 8.5976772 2.1047003
0.23999999 9.1612759 2.1099966
7.7199688 9.3713369 2.1079247
0.23999998 9.4056845 2.1031122
0.23999999 9.5223637 2.1005723
3.5249689 9.5737305 2.1086154
6.6613381e-16 9.5956869 2.1069732
7.7199688 9.760807 2.1035347
3.5249691 9.9389458 2.1002285
3.479507 10.029999 2.1069419
0.91756833 10.03 2.1055532
1.0553836 10.03 2.1050153
1.1038694 10.03 2.1013911
2.1819997 10.03 2.1037133
3.6321778 10.03 2.1040196
5.5293555 10.03 2.1022303
5.6752167 10.03 2.1025124
7.3554077 10.03 2.1043978
7.6786766 10.03 2.1045558
7.7199688 10.052443 2.1072543
7.7199688 10.126064 2.1084669
4.8999686 10.164474 2.1058958
7.9599686 10.185611 2.1096821
3.4549687 10.230986 2.1096449
4.8999686 10.247283 2.1070096
6.6613381e-16 10.252657 2.1021912
1.9365023 10.27 2.1090503
3.5332303 10.27 2.1051977
5.0539989 10.27 2.1013787
5.5718136 10.27 2.1038015
6.3465672 10.27 2.1065288
6.5442786 10.27 2.1078668
7.4748535 10.27 2.1091893
7.9599686 10.337272 2.1029623
3.6999688 10.430523 2.1061146
7.7199688 10.487342 2.1021879
0.24000001 10.504564 2.1006293
6.6613381e-16 10.586437 2.105166
3.5249689 10.635334 2.1052718
7.7199688 10.814738 2.1081483
7.9599686 10.835899 2.108309
7.9599686 10.955442 2.1008873
3.5249691 11.04776 2.1095426
3.6999688 11.164901 2.1096649
3.5249686 11.203749 2.1049924
3.5249686 11.359346 2.1079938
6.6613381e-16 11.364834 2.1045206
7.7199688 11.363392 2.1060107
6.6613381e-16 11.49908 2.1069536
7.7199688 11.563805 2.1063361
6.6613381e-16 11.571712 2.1017561
3.5249689 11.633477 2.1043377
7.9599686 11.653385 2.1054296
0.23999999 11.673963 2.1027169
7.7199688 11.804127 2.1020997
3.6999688 11.866624 2.1055186
3.5249689 11.959238 2.1030695
3.6999688 12.231118 2.1052132
0.23999999 12.373464 2.1000428
7.7199688 12.460565 2.103075
7.9599686 12.495664 2.1098917
3.6999688 12.556341 2.1080544
3.6999688 12.567601 2.1025212
3.6999688 12.97887 2.1046104
3.5249686 13.047101 2.1029332
7.9599686 13.048642 2.100322
6.238739 13.199999 2.1016243
0.11220912 13.2 2.1072009
1.4952395 13.200001 2.1093187
2.4799676 13.2 2.101862
2.9220536 13.200001 2.1091805
3.1661277 13.2 2.1094687
3.5276461 13.2 2.1004405
3.6407285 13.200001 2.1051431
4.3714728 13.2 2.1098969
4.5970764 13.200001 2.108763
4.6556597 13.2 2.1030691
5.1133404 13.2 2.1057463
6.1749687 13.200074 2.102495
6.3610611 13.2 2.1051021
7.1626806 13.2 2.1040192
7.9380879 13.2 2.1086438
1.255 13.351271 2.1097739
6.1749687 13.36447 2.1053996
0.096112885 13.439999 2.1026523
3.9518886 13.439999 2.1063218
4.4049578 13.439999 2.1096249
6.3688469 13.439999 2.104548
7.847074 13.439999 2.1043468
0.011215048 13.44 2.1021786
2.2729857 13.440001 2.1072345
3.3154135 13.44 2.1000648
4.0313673 13.44 2.1087732
4.6764255 13.44 2.1041806
4.7272315 13.44 2.1013043
6.825079 13.440001 2.1091762
3.1024063 6.2172489e-15 2.110723
3.6570868 6.2172489e-15 2.1143465
7.6511412 6.2172489e-15 2.1180661
7.8235159 6.2172489e-15 2.1176455
4.1699686 0.095572554 2.1186452
3.9333241 0.23999998 2.1192083
3.9445431 0.23999998 2.1113207
7.3654237 0.23999998 2.1156976
7.8317742 0.23999998 2.1128149
2.8094926 0.23999999 2.117502
3.5517459 0.24000001 2.1172018
4.0129848 0.23999999 2.1113019
7.7199688 0.24567074 2.1158164
7.8555126 0.23999999 2.1112053
3.6999688 0.40087599 2.1197357
7.9599681 0.47999519 2.1184216
3.6999688 0.55264693 2.1183956
7.7199688 0.57746547 2.1116753
7.7199688 0.64322019 2.1164255
3.6999688 0.65234345 2.1166296
3.5405777 0.68000001 2.1135845
3.5875638 0.68000001 2.1197591
7.9599686 0.75786805 2.1100724
7.7199688 1.0332898 2.1172547
6.6613381e-16 1.2098982 2.1115863
0.22547956 1.205 2.1133649
7.9599686 1.2727381 2.1161082
6.6613381e-16 1.3152028 2.1128447
0.23999998 1.4495355 2.1161358
0.23999998 1.4669276 2.1161561
7.7199688 1.5122359 2.1140521
3.6280727 1.58 2.1166577
6.6613381e-16 1.5901978 2.1131885
3.6999688 1.7597843 2.1183512
3.5249689 1.7831941 2.1174631
3.5249689 1.8050292 2.1182063
7.9599686 1.807851 2.1156306
7.9599686 1.9207329 2.1105044
3.5249686 1.9913305 2.1122265
7.7199688 2.1858082 2.1175442
3.5249689 2.2308624 2.1114559
6.6613381e-16 2.4069347 2.1102691
7.7199688 2.4014871 2.1102145
3.6999688 2.6501117 2.1138723
7.959969 2.806607 2.1167345
0.23999999 2.8806477 2.1176906
7.7199688 2.8834963 2.1130865
3.6999688 2.8956935 2.1166251
7.7199688 2.9912381 2.1109784
3.5249686 3.0159202 2.1105297
3.6999688 3.1385884 2.1148164
3.6999688 3.1588981 2.1189852
7.7199688 3.2545953 2.1131091
3.6999688 3.3212147 2.1139724
0.24000001 3.3799279 2.1165595
0.23999999 3.3841245 2.1135187
7.7199688 3.5495443 2.1145611
3.5249691 3.5870743 2.1168311
7.9599686 3.6411886 2.1136651
0.23999999 3.7042751 2.1117454
0.23999998 3.7560649 2.110235
1.3924493 3.7850001 2.1190767
1.437063 3.7850003 2.1113758
3.6999688 3.8480968 2.1132309
7.9599686 3.8556743 2.1151233
1.2975 3.8697848 2.1190932
3.5914235 3.9000003 2.1153488
3.602191 3.9000001 2.1144478
0.24000001 3.969146 2.1127949
3.5249689 3.9643993 2.1176419
3.5249689 3.9818277 2.1101615
6.6613381e-16 4.0065818 2.1144907
1.842249 4.0149999 2.1111612
3.6399689 4.0520563 2.1136727
7.7199688 4.1074972 2.1147575
7.9599686 4.1869793 2.1178176
7.7199688 4.2633734 2.1174941
6.6613381e-16 4.2931814 2.1163051
3.6399689 4.3033686 2.1161704
7.9599686 4.4613094 2.1123316
7.7199688 4.5780234 2.1168118
6.6613381e-16 4.6533146 2.1111622
7.9599686 4.6649003 2.115835
6.6613381e-16 4.8366742 2.1100268
1.855 4.8344126 2.1105437
3.3000579 4.8999996 2.1197281
0.49415052 4.9000001 2.1112373
0.68430763 4.9000001 2.1175587
0.83282512 4.9000001 2.1120179
1.3628863 4.9000001 2.1105387
1.7578657 4.9000001 2.1123726
3.1817603 4.9000001 2.1194904
3.321079 4.9000001 2.1191611
3.390069 4.9000001 2.1174936
2.8249688 4.9257135 2.1152923
2.8249688 4.9988346 2.112361
0.23999999 5.0169535 2.112462
7.9599686 5.0434761 2.1118891
0.23999999 5.1229672 2.1114066
3.1887765 5.1399994 2.111522
7.7199688 5.1355844 2.111397
0.39355826 5.1399999 2.1193655
0.48517001 5.1399999 2.1152217
0.92415953 5.1399999 2.1179132
1.0062124 5.1399999 2.1174734
1.3589267 5.1399999 2.1107297
1.6100612 5.1399999 2.1109967
3.0530992 5.1399999 2.1131632
0.23999998 5.2468047 2.1181118
7.9599686 5.2938318 2.1129172
3.6999688 5.34237 2.1188562
7.7199688 5.3961511 2.1199231
0.24000001 5.5098348 2.1176987
7.9599686 5.6091113 2.1143875
7.9599686 5.6964002 2.1177256
7.9599686 5.7398343 2.1180191
7.7199683 5.7720184 2.1169002
3.6999688 5.8702922 2.113842
6.6613381e-16 5.9596119 2.1194
6.6613376e-16 5.981307 2.1130052
6.6613381e-16 5.9952054 2.1186452
7.9599686 6.0165434 2.1124644
3.5249686 6.2808161 2.1162977
3.5249689 6.4138412 2.1171532
6.6613376e-16 6.5214095 2.1109114
3.5249689 6.5557137 2.1122756
7.9599686 6.6372204 2.1152487
3.5249691 6.6950083 2.1135285
0.23999999 6.7484784 2.1110449
7.9599686 6.7788458 2.1166639
0.23999999 6.9566612 2.1196229
3.5249689 6.9777222 2.1177101
6.6613376e-16 7.078208 2.1104581
0.23999998 7.0712247 2.1173375
7.7199688 7.1002994 2.1125422
7.7199688 7.1667228 2.1138647
3.5249691 7.2143345 2.1169715
7.9599686 7.262095 2.1103747
3.6999688 7.2893696 2.1101618
3.6999688 7.3181801 2.1161284
0.23999999 7.4254675 2.1123378
3.6999688 7.4354615 2.1125457
0.23999998 7.4413242 2.1189713
6.6613381e-16 7.5459642 2.1103611
0.23999998 7.5524559 2.1159649
3.6999688 7.5873671 2.1188087
3.5249691 7.6125669 2.1108007
6.6613381e-16 7.6281433 2.1127372
6.6613381e-16 7.6574445 2.1189299
0.55274785 7.665 2.113071
1.4179353 7.665 2.1198773
1.7163608 7.665 2.1112862
2.0324137 7.665 2.1191316
2.3852725 7.665 2.1178651
2.6376879 7.665 2.1131959
2.8009367 7.665 2.1187143
3.0371437 7.665 2.1197643
3.3901494 7.665 2.1173134
0.24000001 7.7216091 2.115885
3.5249686 7.7216849 2.1161113
7.7199688 7.7399168 2.1125808
3.6999688 7.7708201 2.1177468
0.41156709 7.7800002 2.1125779
0.88043129 7.7799997 2.1115031
1.1135063 7.7800007 2.1156971
1.3993266 7.7799997 2.1187766
1.7639562 7.7800007 2.1158645
1.9746997 7.7799997 2.1156945
2.0968227 7.7800007 2.1104038
2.7321296 7.7800002 2.1185892
2.9702616 7.7799997 2.1116855
3.6999688 7.7947884 2.110009
6.6613381e-16 7.8483257 2.1188741
6.6613381e-16 7.9956169 2.1198757
3.5249686 7.9926901 2.1174366
3.5249686 8.1859398 2.1151345
3.5249691 8.2722492 2.116298
3.6999688 8.3762045 2.1134233
7.9599686 8.4230137 2.1153281
7.9599686 8.742528 2.1192644
6.6613381e-16 8.7812977 2.1197913
6.6613381e-16 8.8916893 2.1150146
0.24000001 9.0119781 2.110477
3.6377573 9.3999996 2.1120176
3.5249691 9.4786539 2.1103649
3.6999688 9.4770069 2.1149473
7.9599686 9.5000601 2.1189787
3.5249689 9.5304241 2.1113288
3.6999688 9.7318726 2.1135135
3.5249691 9.804862 2.1171098
7.9599686 9.8165436 2.1115434
6.6613381e-16 9.9089355 2.1118119
1.412359 10.03 2.1188316
2.0066118 10.03 2.1142042
2.1602402 10.03 2.1160567
2.3222418 10.03 2.1139903
3.4864621 10.03 2.1129663
5.0705013 10.03 2.1199772
5.8993063 10.03 2.1141036
5.9522357 10.03 2.1128032
6.651494 10.03 2.1157734
6.724246 10.03 2.1195054
6.7927246 10.030001 2.1180665
7.0397711 10.03 2.1190462
7.3175697 10.03 2.1141617
0.23999998 10.167654 2.1120572
7.7199688 10.195453 2.1169975
3.8199687 10.210463 2.1189568
3.8199687 10.239733 2.115555
7.9599686 10.232664 2.1137314
0.29167405 10.27 2.1111534
0.96914071 10.27 2.1197691
1.1318511 10.27 2.1107614
1.254685 10.27 2.1103005
1.2728994 10.27 2.1162159
1.4901862 10.27 2.115356
2.2445786 10.27 2.1153946
5.2630758 10.27 2.1173136
5.8347473 10.27 2.1113453
5.9794755 10.27 2.1107531
6.8656816 10.27 2.1178772
3.5249686 10.379912 2.1125603
7.9599686 10.511589 2.1103089
7.9599686 10.635796 2.1185656
0.23999999 10.726206 2.1119778
7.9599686 10.741568 2.1176748
3.5249689 10.867868 2.1170537
3.5249689 10.901709 2.1199367
7.7199688 10.992914 2.1103199
3.5249686 11.086168 2.1102002
3.5249689 11.113214 2.1154375
7.9599686 11.110683 2.1183989
6.6613381e-16 11.189452 2.1184855
6.6613381e-16 11.192123 2.1157494
3.5249686 11.198097 2.1180453
3.6999688 11.258568 2.1105089
7.9599686 11.288252 2.1114962
3.6999688 11.375947 2.1163542
7.9599686 11.371133 2.1148353
3.6999688 11.386742 2.1101806
0.23999999 11.44915 2.116658
7.7199688 11.719118 2.1127586
7.7199688 11.803905 2.1126313
0.23999999 11.923412 2.1195045
7.9599686 12.062185 2.1149452
7.7199688 12.084569 2.1129649
3.6999688 12.360436 2.1100442
3.6999688 12.379994 2.11795
3.6999688 12.4416 2.1169386
3.6999688 12.596783 2.1109581
3.5249689 12.728329 2.1122372
3.6999688 12.785319 2.1114352
3.6999686 13.032488 2.1102445
7.9599686 13.112047 2.1146886
4.6040969 13.199999 2.11552
6.3953662 13.199999 2.1163313
6.8052902 13.199999 2.1131682
0.0084471274 13.2 2.1164148
0.010633772 13.2 2.1190763
0.058999956 13.2 2.1192226
1.5796299 13.200001 2.1117582
1.8751736 13.2 2.1190376
2.6006186 13.2 2.111506
2.748033 13.2 2.1195421
2.793499 13.2 2.1187954
3.1118588 13.2 2.1187787
5.1393352 13.2 2.1151223
5.2314725 13.2 2.1128645
7.0817666 13.2 2.1163957
7.2651491 13.2 2.1182706
