# .PCD v0.7 - Point Cloud Data file format
VERSION 0.7
FIELDS x y z
SIZE 4 4 4
TYPE F F F
COUNT 1 1 1
WIDTH 1609
HEIGHT 1
VIEWPOINT 0 0 0 1 0 0 0
POINTS 1609
DATA ascii
7.7199688 11.193648 1.2880936
3.47 11.235402 1.2846165
7.7199688 11.247163 1.2879877
3.47 11.382621 1.287219
6.6613381e-16 11.433376 1.2888393
6.6613381e-16 11.620911 1.289206
6.6613381e-16 11.735406 1.2816374
0.23999999 11.753425 1.2848068
7.7199688 11.945343 1.2845824
7.9599686 11.951079 1.2831113
0.23999999 12.00858 1.2869561
3.2950001 12.080708 1.2813597
0.24000001 12.108511 1.2878172
7.7199688 12.184967 1.2815388
6.6613381e-16 12.266956 1.2802069
7.7199688 12.373083 1.2859867
6.6613381e-16 12.437807 1.2890012
6.6613381e-16 12.552386 1.2844783
6.6613381e-16 12.565565 1.2868276
6.6613381e-16 12.60903 1.2883196
3.4700003 12.745373 1.2831795
7.7199688 12.804172 1.2883389
3.2950001 12.864025 1.2890351
7.7199688 12.889063 1.2842393
7.7199688 12.955627 1.286737
6.6613381e-16 13.108013 1.2828081
0.23999999 13.121288 1.2855961
3.2950001 13.173815 1.2855181
2.5077486 13.199999 1.285146
4.2236767 13.199999 1.2872872
6.1250725 13.199999 1.2890598
0.1417646 13.2 1.286936
0.56294042 13.200001 1.287989
0.74852693 13.2 1.288952
1.0540298 13.2 1.2840139
2.0312235 13.2 1.2851923
2.1184757 13.2 1.2802022
2.8458002 13.200001 1.2870221
3.3021402 13.200001 1.2873893
3.4056342 13.200001 1.2827264
5.0675726 13.200001 1.286165
5.2549286 13.200001 1.2843715
5.5994177 13.2 1.2869381
6.4419107 13.200001 1.2817382
7.8096323 13.200001 1.2823032
2.1538327e-14 13.276439 1.2853496
2.1538327e-14 13.389901 1.2800198
7.9599686 13.409335 1.2845055
2.1538327e-14 13.424095 1.2890915
0.68308365 13.439999 1.2823238
2.4379542 13.439999 1.2812173
3.4322038 13.439999 1.2801701
5.4256907 13.439999 1.283536
5.4641523 13.439999 1.2880073
5.7695098 13.439999 1.2803377
6.0372119 13.439999 1.2840044
7.0630217 13.439999 1.289143
7.1837845 13.439999 1.2831693
0.19840921 13.44 1.2849052
0.34693637 13.44 1.2878938
1.1895101 13.440001 1.2827728
1.3485036 13.44 1.2876823
1.599667 13.44 1.2873726
2.341259 13.44 1.2814448
2.7092955 13.440001 1.2897992
2.8715508 13.440001 1.2835071
2.9947913 13.44 1.2867261
3.9271135 13.44 1.2856635
4.0300088 13.440001 1.2858137
4.115798 13.440001 1.2889369
5.3666925 13.44 1.2819742
5.7657461 13.44 1.2859542
5.9176202 13.44 1.2868887
6.16681 13.44 1.2808871
6.5253582 13.44 1.2830629
6.7426853 13.44 1.2819111
7.5747776 13.44 1.2884923
6.6613381e-16 0.0091631701 1.2973325
0.40116829 6.2172489e-15 1.2921208
0.67469764 6.2172489e-15 1.2919171
7.6738548 6.2172489e-15 1.2975694
7.959969 0.10349517 1.2937446
7.269969 0.2033456 1.2907681
0.5873943 0.23999998 1.2994134
3.1589065 0.24000001 1.2988896
3.7446625 0.24000001 1.2915521
7.4753532 0.23999999 1.2923949
7.9599686 0.26288307 1.2947235
3.6999688 0.40619838 1.2934042
3.6999688 0.532924 1.2923687
7.9599686 0.57001263 1.2979157
7.7199688 0.91431689 1.2967179
6.6613381e-16 1.5809592 1.2999023
3.6640654 1.5799999 1.2958826
7.9599686 1.6314605 1.2997302
0.23999999 1.6682696 1.2965804
6.6613381e-16 1.8699837 1.2908571
3.6999688 1.9273472 1.2992185
7.9599686 1.9913141 1.2973082
0.23999999 2.0090258 1.2909081
7.7199688 2.0061471 1.2910409
7.7199688 2.0377328 1.2986599
7.9599686 2.0496259 1.2902676
3.5249686 2.0660276 1.2919821
6.6613381e-16 2.0775223 1.2943623
3.5249689 2.1285429 1.2961885
6.6613381e-16 2.1474452 1.2971268
7.7199688 2.154124 1.2933208
7.9599686 2.23332 1.2957554
6.6613381e-16 2.2498579 1.2926588
0.23999998 2.2856171 1.2959532
7.9599686 2.494586 1.2973905
6.6613381e-16 2.5804114 1.295561
3.6999688 2.6229079 1.2971077
3.6999688 2.6917663 1.2989953
7.9599686 2.6926906 1.2965364
3.6999688 2.7527611 1.2988315
0.23999999 2.7707982 1.2959554
3.5249689 2.8369279 1.2907388
6.6613381e-16 2.8929238 1.2955434
3.6999688 2.9078319 1.2996308
6.6613381e-16 2.931833 1.2990931
6.6613381e-16 2.9532511 1.295172
0.24000001 2.9723682 1.2950679
3.5249689 2.9829829 1.291031
0.23999999 3.1045461 1.2917815
7.9599686 3.1029613 1.299585
6.6613381e-16 3.3166854 1.2969122
3.5249691 3.3114934 1.2984693
3.6999688 3.5004239 1.2937845
3.6999688 3.6850839 1.2909641
7.9599686 3.7256219 1.2921903
7.7199688 3.7502182 1.2949634
0.99105358 3.7849998 1.296103
1.2183403 3.7849998 1.2988271
1.3707129 3.7850001 1.2947612
1.4864945 3.7850001 1.2971461
1.6470261 3.7850001 1.2982699
1.7028151 3.7850001 1.2977217
1.8105841 3.7849998 1.2918122
1.8456225 3.7849998 1.2981349
0.34904504 3.9000001 1.2900524
0.36548972 3.9000001 1.2946117
0.54024869 3.9000001 1.2906976
0.80427903 3.9000001 1.2986504
0.89987779 3.9000001 1.2987924
1.0247474 3.9000001 1.2980618
1.0608276 3.9000001 1.2935983
1.0975275 3.9000001 1.2925786
1.5270913 3.9000001 1.2949517
7.7199688 3.9068239 1.2986501
1.74 3.9408145 1.297595
1.74 3.9872363 1.2966194
3.5249689 4.107625 1.2905982
7.9599686 4.1228142 1.2917285
3.5249689 4.1390901 1.2959433
7.9599686 4.1519632 1.2982841
3.5249691 4.2315569 1.2906744
0.23999998 4.2703223 1.2942026
3.6399689 4.4519768 1.295655
6.6613381e-16 4.4900002 1.2948062
3.5249689 4.5964203 1.2928448
3.5249689 4.6467457 1.2973595
6.6613381e-16 4.6932349 1.2974173
0.23999998 4.7029362 1.2972056
6.6613381e-16 4.7142878 1.2960339
3.5249689 4.7132955 1.2963932
7.7199688 4.7130928 1.2981616
0.48008817 4.9000001 1.2923892
0.81342715 4.9000001 1.2969851
0.91204637 4.9000001 1.2911801
1.1902539 4.9000001 1.2971534
1.5222872 4.9000001 1.2982663
1.6778452 4.9000001 1.296337
2.8249688 4.90381 1.2986115
2.9299369 4.9000001 1.2916673
3.3961911 4.9000001 1.291373
3.6999688 5.0039115 1.2993892
7.9599686 5.0175629 1.2906492
2.8249688 5.07267 1.2992692
0.24000001 5.0820799 1.2900244
3.6999688 5.1098528 1.2960572
0.58828557 5.1399999 1.2914063
0.72533369 5.1399999 1.2953639
3.0215435 5.1399999 1.2975096
3.040489 5.1399999 1.2912637
3.4448838 5.1399999 1.2938809
3.5504797 5.1399999 1.2937337
0.24000001 5.2377644 1.2968166
0.23999998 5.3688293 1.290766
7.7199688 5.3796396 1.2955719
0.23999999 5.3994269 1.2951055
7.7199688 5.3938994 1.298295
7.9599686 5.4119077 1.2921789
0.23999999 5.4344921 1.294436
7.959969 5.4461932 1.2990432
3.6999688 5.48457 1.2914212
0.23999998 5.8546782 1.2994175
3.5249689 6.0864911 1.2904496
6.6613381e-16 6.1319895 1.295516
3.5249686 6.2575312 1.2906319
3.6999688 6.3408861 1.2972775
6.6613381e-16 6.3657413 1.2982411
0.23999998 6.3796902 1.2998278
7.9599686 6.5320969 1.2997048
3.5249689 6.5557337 1.2999771
0.24000001 6.5766907 1.2980692
6.6613381e-16 6.6992531 1.2959369
6.6613381e-16 6.7739654 1.2952738
6.6613381e-16 6.8756695 1.2980082
3.6999688 6.8780713 1.295416
7.7199688 6.8700256 1.2918258
3.5249689 6.8803644 1.2986798
0.23999999 7.0131168 1.2977419
3.6999688 7.0115347 1.2957206
3.5249689 7.0962915 1.2909247
3.6999688 7.1494827 1.2902957
0.23999999 7.1958942 1.2989709
3.6999688 7.3090982 1.2950753
3.6999688 7.5225978 1.2968169
0.33691755 7.665 1.2967513
1.6292293 7.665 1.2901508
1.7447739 7.665 1.2933965
1.8725984 7.665 1.2969065
2.4139769 7.665 1.2955118
3.2063446 7.665 1.2959831
3.3814857 7.665 1.2907674
3.5249689 7.6662621 1.298611
0.43660569 7.7799997 1.2973715
0.54119945 7.7800007 1.2950141
1.9123888 7.7800007 1.291679
2.4384813 7.7800002 1.2971089
2.5283413 7.7800002 1.295701
2.9791136 7.7800007 1.2991537
3.1220636 7.7800002 1.2968099
3.4188838 7.7800007 1.2932625
3.5100243 7.7799997 1.2957127
7.9599686 7.8118901 1.2916889
3.6999688 7.886632 1.2941782
6.6613381e-16 7.9542637 1.2935126
0.23999999 8.0683298 1.299642
3.6999688 8.1089096 1.2976292
7.9599686 8.128376 1.2922844
7.7199688 8.1428299 1.2952589
7.9599686 8.1959877 1.2955478
6.6613381e-16 8.2199135 1.2920294
7.7199688 8.5326538 1.2978631
0.24000001 8.9354534 1.2969902
7.9599686 9.2390776 1.2940929
6.6613381e-16 9.249197 1.2907372
6.6613381e-16 9.4096031 1.2938889
6.6613381e-16 9.4199991 1.2911812
6.6613381e-16 9.5538883 1.2970635
3.6999688 9.6097755 1.2961404
3.6999688 9.6348925 1.2906079
7.7199688 9.7348042 1.2984276
0.23999999 9.7406044 1.2917902
6.6613381e-16 9.8495331 1.2969724
3.6999688 9.8534727 1.2911522
6.6613381e-16 9.8747892 1.2975273
7.7199688 9.8785543 1.2908335
7.7199688 9.8823757 1.2917814
7.7199688 9.9538851 1.2932148
7.9599686 9.9761324 1.2951102
0.23999999 9.9813805 1.293278
0.23999999 10.018624 1.2910903
6.6613381e-16 10.022055 1.2993345
3.6999688 10.024278 1.2923194
6.6613381e-16 10.054628 1.2903312
6.6613381e-16 10.068693 1.2941854
7.7199688 10.137117 1.2979805
1.649205 10.2 1.2969079
1.653072 10.200001 1.2982582
1.9499421 10.2 1.290143
2.2810516 10.2 1.2964507
2.4705861 10.2 1.2959211
5.8019867 10.2 1.2964013
5.9241819 10.2 1.2924658
6.3964424 10.2 1.2970877
6.4493351 10.2 1.2949207
6.6802979 10.2 1.2985201
7.5559087 10.2 1.2916763
2.5549688 10.262748 1.2976869
6.3279514 10.439999 1.2955574
0.86961776 10.44 1.2975148
1.871799 10.44 1.2986358
2.1296468 10.44 1.2970335
2.4494278 10.44 1.291307
3.3912659 10.44 1.2995472
5.1891603 10.44 1.2976314
5.8938327 10.44 1.2923484
5.981432 10.44 1.2956946
6.5594873 10.44 1.2964846
6.6506095 10.44 1.2989147
7.012465 10.44 1.293231
7.3017836 10.44 1.2994374
7.7199688 10.482186 1.298383
6.6613381e-16 10.54302 1.2914219
3.4700003 10.566438 1.2974267
7.9599686 10.570789 1.2945998
7.959969 10.756828 1.2984447
3.2950001 10.799538 1.2957923
3.2950001 10.827501 1.2997935
3.2950001 10.852806 1.2960274
7.9599686 10.870086 1.2997476
3.4699998 11.272804 1.2942464
7.7199688 11.329601 1.2934742
0.23999999 11.439807 1.2927231
3.2950001 11.498095 1.291671
3.4699998 11.580783 1.2965174
7.9599686 11.61305 1.2985281
0.23999999 11.711473 1.2917465
0.23999999 11.867246 1.2966075
7.9599686 11.902982 1.2981721
3.2950001 11.95856 1.2999034
3.4699998 12.032678 1.2913941
6.6613381e-16 12.117019 1.290037
7.7199688 12.18969 1.2909287
7.9599686 12.276593 1.2916263
7.7199688 12.296011 1.2994854
7.9599686 12.311316 1.295018
3.4699998 12.474947 1.2924321
7.7199688 12.482672 1.2945997
0.23999998 12.557311 1.2984136
7.7199688 12.554452 1.2962483
3.2950001 12.572395 1.291966
3.2950001 12.599022 1.2908478
3.4700003 12.602346 1.2917475
3.2950001 12.716331 1.293404
7.7199688 12.802013 1.29834
0.23999999 12.810112 1.2905132
3.2950001 12.82653 1.2927397
7.7199688 12.833571 1.2976105
7.7199688 12.89845 1.2954308
7.7199688 12.95282 1.2928526
6.6613381e-16 12.969814 1.2919359
7.7199688 13.015697 1.2935001
6.6613381e-16 13.044164 1.2968187
7.7199688 13.092708 1.2955565
0.23999998 13.153873 1.2936704
0.23999998 13.183544 1.2991211
3.652379 13.199999 1.2930812
5.2744312 13.199999 1.2936566
5.4326105 13.199999 1.2949877
5.6716032 13.199999 1.2902929
0.054023165 13.2 1.2935138
0.32452601 13.2 1.2918451
0.34733221 13.2 1.2911298
0.49670058 13.2 1.2931364
1.239399 13.200001 1.2976644
1.741004 13.2 1.2954969
1.8669161 13.2 1.2920327
1.9209011 13.2 1.2988548
1.9980581 13.2 1.2964458
3.0964453 13.200001 1.293716
3.2467067 13.200001 1.2976459
4.0941792 13.200001 1.2959591
4.1658196 13.200001 1.2926164
4.598393 13.2 1.2942336
4.6831121 13.2 1.2941957
5.3791981 13.200001 1.2937913
5.9031096 13.2 1.2907852
5.9776254 13.2 1.2983751
6.2008848 13.2 1.2951736
6.5732331 13.2 1.2900053
6.6401024 13.2 1.2909046
6.719851 13.2 1.2931968
6.8544221 13.2 1.2904652
7.1304116 13.2 1.2962579
7.9599686 13.367743 1.2985463
7.9599686 13.425362 1.2912197
0.18012944 13.439999 1.2931286
1.3726437 13.439999 1.2956661
1.5564833 13.439999 1.2920842
3.3791065 13.439999 1.2904407
3.7844803 13.439999 1.2950265
7.0624266 13.439999 1.2912408
0.15755372 13.440001 1.2939384
1.95968 13.44 1.2906585
2.9387069 13.440001 1.2908492
3.5822716 13.440001 1.2983868
4.5900879 13.44 1.2991493
4.6895256 13.44 1.2916378
5.2902656 13.440001 1.2917632
6.2810287 13.440001 1.2993044
6.3507299 13.44 1.2911977
6.8853335 13.44 1.291864
0.45428824 6.2172489e-15 1.3035126
0.5697096 6.2172489e-15 1.3031224
3.3476138 6.2172489e-15 1.302031
3.9321892 6.2172489e-15 1.3083669
4.1213255 6.2172489e-15 1.3025891
2.79 0.091595002 1.3014132
0.24000001 0.1708775 1.3038421
4.1699686 0.19965744 1.3038536
7.269969 0.22437142 1.3014849
0.24253173 0.23999998 1.3024603
0.55161595 0.23999998 1.30358
3.1314921 0.23999998 1.3072382
3.8362558 0.24000001 1.3065687
3.9297967 0.23999999 1.3017335
7.436389 0.23999999 1.3050776
6.6613381e-16 0.25147042 1.3087344
0.23999999 0.26554155 1.3011085
0.092796445 0.27500001 1.3029132
3.6999688 0.3787562 1.3090645
7.9599686 0.55989784 1.3042207
7.9599686 0.61646396 1.3084835
3.6999688 0.6527552 1.3058354
7.9599686 0.73112178 1.3008988
7.7199688 0.80622429 1.3005686
7.9599686 1.2235467 1.3029499
7.9599686 1.2411122 1.3081903
0.23999999 1.3421446 1.3018907
7.9599686 1.3566082 1.3094237
0.23999999 1.4177793 1.3035825
3.6999688 1.5879818 1.3014801
6.6613381e-16 1.602114 1.3042905
0.24000001 1.6634552 1.3051149
3.6999688 1.6946422 1.3041698
7.9599686 1.7130209 1.3026309
0.23999999 1.763211 1.3094106
3.6999688 1.8335764 1.3028655
6.6613381e-16 2.013437 1.3048998
7.9599686 2.0169718 1.3079009
7.9599686 2.2663155 1.308356
3.5249686 2.3233855 1.3090988
7.7199683 2.3815086 1.3022825
0.24000001 2.4095874 1.3016138
7.9599686 2.4184918 1.3088945
7.7199688 2.4289172 1.3027282
7.7199688 2.4321785 1.3093407
0.24000001 2.5230725 1.3022869
0.23999999 2.5430291 1.3082182
6.6613381e-16 2.5684581 1.3044823
3.5249689 2.6478944 1.3001866
3.5249689 2.7095118 1.3083292
7.9599686 2.7678974 1.3011482
0.24000001 2.7788329 1.3019296
6.6613381e-16 2.8144407 1.3071989
3.6999688 2.8586497 1.302013
3.5249689 2.9081788 1.3099145
7.9599686 2.9882355 1.3048961
0.23999999 3.0556836 1.3075466
6.6613381e-16 3.0768785 1.3069878
7.7199688 3.0701711 1.3021158
7.9599686 3.1137977 1.3073504
3.6999688 3.1301959 1.3012114
7.7199688 3.2774374 1.3045566
0.23999999 3.3367724 1.3006854
6.6613381e-16 3.3577945 1.3018435
7.9599686 3.4377348 1.3028455
3.5249689 3.4457071 1.3078858
3.5249691 3.5638516 1.3059587
7.7199688 3.5723588 1.3000113
0.28674734 3.7850001 1.3022239
0.33584732 3.7850003 1.3075625
0.86552137 3.7849998 1.3036277
0.90160334 3.7849998 1.3049657
1.3595771 3.7849998 1.3030412
1.6265227 3.7850001 1.3086689
7.7199688 3.8065464 1.3086189
7.7199688 3.8644876 1.3004773
0.4958474 3.9000001 1.3007673
0.89531511 3.9000001 1.3037646
0.94906783 3.9000001 1.3037958
1.5129169 3.9000001 1.3077515
7.9599686 4.1031728 1.3096308
3.5249689 4.136775 1.3026543
3.6399689 4.1485147 1.3047554
7.9599686 4.2259607 1.3029774
7.9599686 4.2308073 1.3009677
3.5249691 4.2929001 1.3056185
6.6613381e-16 4.3689156 1.3017838
3.5249691 4.5020194 1.3091571
0.23999999 4.6289868 1.3061619
6.6613381e-16 4.6630845 1.3057282
7.7199688 4.6752176 1.307578
7.9599686 4.6772785 1.3074203
6.6613381e-16 4.6871271 1.3044591
6.6613381e-16 4.6904855 1.3081568
3.6399689 4.7029114 1.3061389
3.6399689 4.7340498 1.3004341
7.7199688 4.7366848 1.3054219
7.9599686 4.7943106 1.3024566
0.24000001 4.8977942 1.3083245
0.33461523 4.9000001 1.3026508
0.97787762 4.9000001 1.3076934
1.0429265 4.9000006 1.3009915
1.7586797 4.9000001 1.3095909
2.97401 4.9000001 1.307333
0.24000001 4.9928088 1.3080847
7.9599686 5.0500073 1.3083642
0.47098982 5.1399999 1.3016827
0.7652756 5.1399999 1.3071465
1.0493184 5.1399999 1.3073243
1.3224254 5.1399999 1.3064764
1.8197107 5.1399999 1.3010607
3.0339739 5.1399999 1.3068724
3.5923457 5.1399999 1.3087326
0.23999998 5.2259088 1.3071457
7.7199688 5.3718743 1.3043579
7.9599686 5.3995695 1.3019891
7.7199688 5.6157222 1.3074504
7.7199688 5.6312027 1.3004503
6.6613381e-16 5.707211 1.3009789
7.9599686 5.728579 1.3003399
3.6999688 5.8449926 1.3026062
0.24000001 5.8791327 1.3007314
7.9599686 6.0014038 1.3016059
3.6999688 6.0276446 1.3012809
3.5249686 6.0703926 1.3014671
6.6613381e-16 6.115747 1.304719
0.23999999 6.2165461 1.3059539
7.9599686 6.2891302 1.3089049
6.6613381e-16 6.2939019 1.3039727
3.5249686 6.3977437 1.303154
0.24000001 6.4109154 1.3010602
7.9599686 6.4933028 1.3048095
3.5249689 6.6051946 1.3011334
7.7199688 6.6864457 1.305401
7.9599686 6.748528 1.3044139
7.9599686 6.8101301 1.3011461
3.5249686 7.0187769 1.3071822
6.6613381e-16 7.0878439 1.3086691
7.7199683 7.2825122 1.3061544
6.6613381e-16 7.3721008 1.3029426
3.5249686 7.417181 1.3042868
7.7199688 7.5365405 1.3011092
6.6613381e-16 7.6443176 1.3035948
0.34395286 7.665 1.3008718
0.3504473 7.665 1.3009233
0.65999305 7.665 1.3027788
0.7179659 7.665 1.3042939
1.4057405 7.665 1.3021262
1.6509501 7.665 1.3036841
1.6861959 7.6649995 1.3024423
2.0483108 7.665 1.3054707
2.1000078 7.665 1.3019412
2.161278 7.665 1.307199
2.2293885 7.665 1.3096725
2.4663806 7.665 1.3040575
3.0540433 7.665 1.3072133
3.3820531 7.6650004 1.300433
0.23999999 7.7473707 1.3025171
3.5249686 7.7480392 1.3035914
0.66531348 7.7800007 1.3000579
1.2131884 7.7800002 1.3055899
1.4552319 7.7799997 1.3017931
1.9734813 7.7800002 1.3021035
2.4158123 7.7800002 1.307063
2.5739164 7.7800002 1.3075982
2.8342128 7.7800007 1.3060377
3.1724312 7.7799997 1.3053207
3.2236984 7.7800007 1.3019856
7.7199688 7.8480635 1.3033006
3.5249689 7.8566484 1.3087687
3.5249686 7.8632908 1.3073542
7.9599686 7.9107175 1.309954
0.24000001 7.9672656 1.3074131
3.6999688 7.9620705 1.3092536
3.5249691 8.0994501 1.3082085
3.5249686 8.11586 1.303731
7.9599686 8.1196547 1.3006485
6.6613381e-16 8.1689816 1.3030746
0.23999999 8.2026024 1.3015792
7.9599686 8.2089176 1.3052446
6.6613381e-16 8.2751493 1.3002794
7.7199688 8.2718382 1.3014669
3.5249689 8.2915726 1.3087653
0.23999999 8.321969 1.3001176
3.5249689 8.3753328 1.3039086
3.5249689 8.3847065 1.3021977
6.6613381e-16 8.3993521 1.3027905
3.5451062 8.5 1.3045018
3.6755188 8.5 1.3051393
7.7199688 8.5001345 1.3013107
0.24000001 8.5244694 1.3086741
7.9599686 8.7956333 1.3069327
6.6613381e-16 8.8188953 1.3024632
6.6613381e-16 8.8505869 1.3071045
7.9599686 8.9678211 1.30531
7.9599686 9.0167341 1.3053114
7.9599686 9.0620432 1.3058773
0.23999998 9.1791048 1.3058228
7.7199688 9.2164583 1.3006654
7.9599686 9.5850143 1.301818
3.5249689 9.6052971 1.3027112
7.9599686 9.651207 1.308545
6.6613381e-16 9.6694965 1.3018808
3.6999688 9.6861115 1.3051993
6.6613381e-16 9.7261305 1.3028973
7.7199688 9.7472115 1.3052629
3.6999688 9.8371849 1.3006504
6.6613381e-16 9.8490181 1.3047307
0.23999999 9.8632555 1.3019975
7.7199688 9.9266329 1.3034372
7.7199688 9.9863625 1.3051945
7.7199688 10.034814 1.3014593
0.23999999 10.089539 1.3083594
3.6999688 10.140076 1.3023885
7.9599686 10.143712 1.3010262
0.39583653 10.2 1.3004359
0.46545747 10.2 1.3005382
0.86783063 10.2 1.3088357
1.2497334 10.2 1.3072755
1.8884056 10.2 1.3058573
4.9678802 10.2 1.305318
5.0899706 10.2 1.3072485
5.5610166 10.2 1.3026475
5.5735168 10.2 1.3045011
5.6141944 10.2 1.3033693
6.3501759 10.2 1.3053453
6.3718305 10.2 1.3058877
6.4652052 10.2 1.3078723
6.711894 10.2 1.3095609
6.8887253 10.2 1.3014063
7.1045957 10.2 1.3023481
7.2050791 10.2 1.3087239
7.3282442 10.2 1.3086587
7.5685258 10.200001 1.3045589
7.7199688 10.236937 1.3007638
6.6613381e-16 10.246218 1.3094639
3.8199687 10.283948 1.3021681
7.9599686 10.34882 1.301142
2.5549688 10.357544 1.3017217
0.23999998 10.366884 1.3072568
4.8999686 10.406731 1.3067392
6.6613381e-16 10.427905 1.3062377
0.23999998 10.438474 1.3043673
7.3267593 10.439999 1.306819
0.43035692 10.44 1.3031938
1.0107088 10.44 1.3037405
1.119725 10.44 1.3021848
1.1250881 10.44 1.3067021
1.1549276 10.44 1.3099426
1.3870318 10.44 1.3044311
2.4751058 10.44 1.3029312
3.5998764 10.44 1.3010204
3.7789493 10.44 1.301723
4.9403791 10.44 1.3075511
4.9532366 10.44 1.3049718
5.1508417 10.44 1.3059524
5.2809386 10.440001 1.3043052
5.6294193 10.44 1.3076888
7.7199688 10.496641 1.3037579
0.23999998 10.656503 1.3049191
3.4699998 10.665216 1.3084569
0.23999999 10.684811 1.3024045
6.6613381e-16 10.736258 1.3060367
3.2950001 10.921574 1.3090078
7.7199688 10.960497 1.3022079
7.9599686 11.103826 1.3071802
3.47 11.122799 1.308494
0.23999998 11.179645 1.3044906
3.47 11.268751 1.3017575
0.23999999 11.45355 1.3081445
0.23999998 11.486975 1.3039477
6.6613381e-16 11.655194 1.3083715
3.2950001 11.657157 1.302956
7.9599686 11.668619 1.3089781
3.47 11.730368 1.3032327
0.23999999 11.778931 1.3008159
3.2950001 11.865484 1.3003879
0.23999999 11.939719 1.3081603
7.7199688 12.026624 1.3081604
6.6613381e-16 12.158876 1.303813
7.9599686 12.375564 1.3080177
7.7199688 12.397787 1.3017367
3.2950001 12.485692 1.3002068
7.7199688 12.561197 1.3020271
7.7199688 12.580016 1.308025
0.23999998 12.615513 1.3026217
7.7199688 12.621616 1.3073902
7.9599686 12.624387 1.3050274
0.24000001 12.683566 1.3044076
3.2950001 12.70506 1.3045104
3.4699998 12.702602 1.3079202
0.24000001 12.774686 1.3029027
0.24000001 12.941047 1.3086559
6.6613381e-16 12.967061 1.3086511
7.9599686 13.121097 1.3072542
0.42777401 13.199999 1.3047068
2.6334302 13.199999 1.3038476
3.100503 13.199999 1.3074999
7.9122367 13.199999 1.3024771
0.010727047 13.2 1.3021716
0.029064931 13.2 1.3091296
0.53255761 13.2 1.3095107
0.77293354 13.2 1.3005427
1.6957064 13.2 1.3015021
1.7550845 13.2 1.3023969
4.2044797 13.2 1.3086987
4.500392 13.2 1.3079138
5.3199139 13.200001 1.3086543
5.7103491 13.2 1.3092552
6.0136213 13.2 1.3068162
7.1716576 13.2 1.304373
7.4955187 13.2 1.3030833
7.8276081 13.2 1.3062191
2.1538327e-14 13.301708 1.3064216
2.6258767 13.439999 1.3087274
6.0378447 13.439999 1.3019626
6.2096643 13.439999 1.3015393
6.4048996 13.439999 1.3021033
0.34993848 13.44 1.3031813
0.89381009 13.440001 1.3052636
1.1485772 13.44 1.3017416
1.3809631 13.44 1.3031105
2.5607684 13.44 1.3005322
3.0111499 13.44 1.3030634
3.430198 13.44 1.3071131
4.3514352 13.44 1.3080353
4.6608591 13.44 1.3092589
4.7077155 13.44 1.3060477
4.8716741 13.44 1.3070277
5.2860656 13.440001 1.3020605
6.5545216 13.440001 1.3015637
6.5842018 13.440001 1.3073618
6.8175783 13.44 1.3045979
6.8536334 13.440001 1.3010497
6.9349766 13.440001 1.3064404
7.631712 13.44 1.3017669
7.6969228 13.44 1.3024197
6.6613387e-16 0.0057813255 1.31662
0.30505359 6.2172489e-15 1.3166472
3.6614292 6.2172489e-15 1.3157189
4.114357 6.2172489e-15 1.3110862
7.7259512 6.2172489e-15 1.3141204
7.269969 0.095293738 1.314471
0.23999999 0.14240442 1.3156797
2.79 0.16768903 1.3162907
2.79 0.21770735 1.3108099
6.6613381e-16 0.22634208 1.3142633
7.9599686 0.22057916 1.3160642
0.40192711 0.23999998 1.3101969
3.7501688 0.23999998 1.3112249
3.1462708 0.23999999 1.3163552
7.9599686 0.2562637 1.319802
0.056188073 0.27500001 1.3171848
0.11026508 0.27500001 1.311865
3.6999688 0.43495536 1.3172616
3.6999688 0.53896785 1.3174849
7.7199688 0.53321576 1.310039
7.7199688 0.54779238 1.3173288
3.6901605 0.68000001 1.3154576
7.9599686 1.0749278 1.3186548
7.7199688 1.0916758 1.3132061
0.013807097 1.205 1.3124467
0.12386461 1.205 1.3151256
7.9599686 1.2831619 1.3100058
7.9599686 1.3770641 1.3164053
6.6613381e-16 1.4696209 1.3160422
7.9599686 1.4988897 1.3180395
0.23999999 1.6618195 1.316534
6.6613381e-16 1.7748585 1.3116157
3.5249689 1.8057921 1.3154228
7.7199688 1.9144673 1.3176357
7.9599686 1.9803741 1.3125876
6.6613381e-16 2.0677688 1.3125107
7.7199688 2.1186159 1.3114148
0.23999999 2.1943636 1.3155973
6.6613381e-16 2.2048471 1.3191376
7.7199688 2.2024975 1.3180619
7.7199688 2.3200057 1.316041
6.6613381e-16 2.3596025 1.3178664
7.9599686 2.372792 1.3165072
7.9599686 2.4759693 1.3135231
7.7199688 2.5522144 1.3122646
6.6613381e-16 2.5958738 1.3113561
3.6999688 2.6425824 1.3193262
3.5249691 2.8550401 1.3165643
3.6999688 2.8930683 1.318222
7.7199688 2.8932858 1.3145686
3.5249689 2.9550569 1.3197055
0.23999998 3.0604997 1.3135746
7.7199688 3.17557 1.3133512
0.23999999 3.3675482 1.3117036
3.5249689 3.361377 1.3111897
7.9599686 3.362076 1.3117613
7.7199688 3.4931328 1.3122194
0.23999998 3.5134518 1.3128805
3.5249686 3.5370121 1.3180444
0.23999999 3.5492671 1.3139417
7.9599686 3.5446801 1.3125443
0.23999998 3.5914645 1.3173983
0.24000001 3.6429794 1.319381
7.7199688 3.7425189 1.3181224
7.9599686 3.7991037 1.3115169
3.5249689 3.892045 1.3155465
0.35976377 3.9000001 1.3101013
0.63212109 3.9000001 1.3143449
1.2955872 3.9000001 1.3139277
1.4749095 3.9000001 1.3141729
1.855 3.9764216 1.3193625
6.6613381e-16 3.988055 1.3172269
6.6613381e-16 4.0648952 1.3173817
6.6613381e-16 4.1094928 1.3104861
0.23999999 4.1886039 1.3194923
7.7199688 4.3288507 1.3184251
6.6613381e-16 4.3773661 1.3132749
7.9599686 4.4878845 1.3165554
7.7199688 4.5817895 1.3193771
3.5249689 4.6461439 1.3167136
6.6613381e-16 4.6670856 1.3106343
3.6399689 4.7119079 1.3133594
3.5249691 4.7791276 1.3139086
0.57404578 4.9000001 1.3162472
0.86465883 4.9000001 1.3101138
1.4292394 4.9000001 1.3164971
1.6790683 4.9000001 1.3165261
1.7677779 4.9000006 1.3160906
1.8175638 4.9000001 1.3181634
2.9630435 4.9000001 1.3137577
3.1214805 4.9000001 1.3144444
3.506032 4.9000001 1.3155209
1.9249687 4.9844337 1.313309
6.6613381e-16 5.0510159 1.3178581
3.3442664 5.1399994 1.3132493
0.27431607 5.1399999 1.3198383
0.41188401 5.1400003 1.3155967
1.4249914 5.1399999 1.3104699
1.7218671 5.1399999 1.31135
3.1797421 5.1399999 1.313779
7.9599686 5.2417765 1.3134089
0.23999998 5.3000317 1.3146307
7.7199688 5.3041506 1.3117331
7.9599686 5.317327 1.3128539
6.6613381e-16 5.32512 1.3185484
3.6999688 5.3580313 1.3100263
7.7199688 5.395679 1.3184183
6.6613381e-16 5.7421446 1.3155764
7.7199688 5.7838764 1.318035
6.6613381e-16 5.8630905 1.3197423
7.9599686 5.8891935 1.3167977
3.6999688 5.9014421 1.3174503
0.23999999 5.9322052 1.3187735
3.6999688 5.9568434 1.3152328
3.6999688 6.0252776 1.3125899
6.6613381e-16 6.039422 1.3123432
3.5249689 6.0682073 1.310648
3.6999688 6.140728 1.317873
3.5249691 6.2951636 1.3172684
0.23999998 6.3217077 1.3111416
0.23999998 6.3319159 1.3157414
6.6613381e-16 6.3424563 1.3150578
6.6613381e-16 6.3668847 1.3164605
0.23999998 6.4624844 1.3115664
3.5249689 6.474494 1.3183241
7.7199688 6.4890947 1.319837
0.23999999 6.6897068 1.3120383
0.23999999 6.8620253 1.3150645
3.5249691 6.9215746 1.3164237
6.6613381e-16 6.9349484 1.3127425
6.6613381e-16 6.9933639 1.3163865
3.5249689 7.2927537 1.3143115
7.7199688 7.2942944 1.3190969
0.23999999 7.3602247 1.3177882
3.6999688 7.3673649 1.3181868
6.6613381e-16 7.4576969 1.3141818
6.6613381e-16 7.5014567 1.3107104
6.6613381e-16 7.6165991 1.3105837
0.2870878 7.665 1.3127939
1.294059 7.665 1.3123659
2.491833 7.665 1.3180764
2.9828005 7.665 1.3137107
3.1520364 7.665 1.3120583
3.5249691 7.6817818 1.3196288
6.6613381e-16 7.6978984 1.3146675
7.9599686 7.7368612 1.3113592
0.43249959 7.7800007 1.3155447
0.77058059 7.7800002 1.3162042
1.1661161 7.7800002 1.3126101
1.9813917 7.7800002 1.3183346
2.1291332 7.7800007 1.3127604
2.1829634 7.7799997 1.3177149
2.4632084 7.7800002 1.3165731
2.6247232 7.7800002 1.3135102
2.6597254 7.7800007 1.3189394
3.2186291 7.7799997 1.3117315
3.2443802 7.7799997 1.3120824
0.23999999 8.0315456 1.3176086
3.6999688 8.0762596 1.3148887
6.6613381e-16 8.1473846 1.310757
3.5249689 8.1643896 1.3102093
3.6999688 8.2114668 1.3158609
6.6613381e-16 8.2331972 1.313604
7.9599686 8.2331734 1.310104
6.6613381e-16 8.3535843 1.3169889
6.6613381e-16 8.547555 1.3144046
6.6613381e-16 8.737155 1.3194959
7.9599686 8.7413092 1.3163533
0.24000001 8.770483 1.3159813
7.9599686 8.802309 1.3113993
6.6613381e-16 9.027915 1.3190022
6.6613381e-16 9.0339336 1.3171841
7.9599686 9.1039238 1.3110617
6.6613381e-16 9.167284 1.3190725
0.24000001 9.2840929 1.3173678
3.6280632 9.3999996 1.3136879
3.6999688 9.5588551 1.316366
0.23999999 9.6866093 1.3151457
7.7199688 9.6800566 1.3122294
7.7199688 9.7173471 1.3114984
7.9599686 9.7833719 1.3170596
7.9599686 9.8079987 1.3106245
6.6613381e-16 10.021976 1.3155837
0.23999998 10.038815 1.3116506
6.6613381e-16 10.077504 1.3191605
0.26384136 10.2 1.3167613
0.74558264 10.2 1.3120198
0.85438049 10.2 1.3161527
1.0691309 10.2 1.3139484
1.4669353 10.2 1.3120509
1.5796928 10.2 1.3164737
2.4170907 10.2 1.3106574
3.6085892 10.2 1.3172264
3.7565989 10.2 1.3101249
5.4411907 10.2 1.3199362
6.0532799 10.2 1.3121126
6.5141211 10.2 1.3152782
6.6340337 10.2 1.3143593
7.9599686 10.256347 1.3192886
7.7199688 10.271393 1.3107489
2.5549688 10.345808 1.3123432
0.63371813 10.44 1.3119801
0.70381689 10.44 1.3197997
0.78111953 10.44 1.3108563
1.297953 10.44 1.3134716
1.3062856 10.44 1.3128395
1.5289001 10.440001 1.3183352
1.6699922 10.44 1.3136896
1.7904642 10.44 1.3167653
2.2341356 10.44 1.3191085
2.389617 10.44 1.3154228
2.5167577 10.44 1.3139516
3.2977464 10.44 1.314315
3.4298005 10.44 1.3179088
6.0074329 10.44 1.3189709
6.5501046 10.44 1.3113247
6.6210928 10.44 1.3197334
7.6198177 10.44 1.3134577
6.6613381e-16 10.538157 1.3126038
3.47 10.565163 1.3115857
7.9599686 10.68821 1.3132433
6.6613381e-16 10.768232 1.3138312
3.47 10.803064 1.3152046
3.4700003 10.842104 1.3196168
7.9599686 10.895622 1.3197293
3.4700003 10.964103 1.3192788
3.47 11.012476 1.3136965
7.7199688 11.105364 1.314499
3.47 11.137386 1.3123633
7.9599686 11.133951 1.3188723
3.2950001 11.215696 1.3160876
7.7199688 11.218462 1.3177276
0.23999999 11.318746 1.3142241
6.6613381e-16 11.325943 1.3113534
6.6613381e-16 11.384867 1.310768
6.6613381e-16 11.519012 1.3139912
7.9599686 11.570239 1.3132656
3.47 11.740202 1.3192831
7.9599686 11.869674 1.3167351
6.6613381e-16 11.87743 1.3183372
3.2950001 11.881971 1.3124954
7.7199688 11.908076 1.3189065
6.6613381e-16 11.916672 1.3100486
7.7199688 11.946543 1.3111597
6.6613381e-16 12.132015 1.3156834
3.47 12.149921 1.3138299
7.9599686 12.155093 1.312737
0.23999999 12.264691 1.3184335
7.9599686 12.295408 1.3147091
6.6613381e-16 12.48625 1.3186926
6.6613381e-16 12.559706 1.3186481
3.2950001 12.555023 1.3124833
7.7199688 12.599347 1.3128341
7.7199688 12.610477 1.3131869
3.4700003 12.664823 1.3129902
0.24000001 12.677534 1.313491
6.6613381e-16 12.699911 1.3197299
7.7199688 12.698764 1.3124806
3.4700003 12.71443 1.3167137
0.24000001 12.743162 1.3180741
3.2950001 12.747539 1.3126171
7.9599681 12.800331 1.3151442
6.6613381e-16 12.919556 1.3149494
7.7199688 13.077615 1.3177464
3.47 13.155396 1.3109269
0.66916615 13.199999 1.3139365
0.99491429 13.199999 1.319217
1.3635273 13.199999 1.3179114
2.5664258 13.199999 1.3163432
2.6223836 13.199999 1.313741
3.2950001 13.19924 1.3186005
0.15192512 13.2 1.3186214
0.55605596 13.2 1.3127384
0.77547836 13.2 1.3118727
1.6977054 13.2 1.3147717
1.9549341 13.200001 1.3113136
2.0021415 13.2 1.318779
2.2280958 13.200001 1.3192543
2.5380459 13.2 1.3111916
2.6687512 13.2 1.3176296
2.7985628 13.2 1.3175572
3.0158443 13.2 1.314065
3.2555947 13.200001 1.3126093
3.3301497 13.2 1.3141376
4.5400662 13.2 1.3132182
5.2843962 13.2 1.3143613
5.3136215 13.2 1.3136573
5.4139714 13.200001 1.3104995
5.8343472 13.2 1.3145694
7.0846753 13.2 1.3166749
7.9599686 13.337847 1.3138869
0.48381197 13.439999 1.314201
2.1719 13.439999 1.3138393
3.8375416 13.439999 1.3192939
5.3586679 13.439999 1.3141395
5.570622 13.439999 1.318014
7.7641821 13.439999 1.3171127
7.8362112 13.439999 1.3105783
0.49530485 13.44 1.3103253
1.0375607 13.44 1.3154662
1.4570355 13.440001 1.3142977
1.7697084 13.44 1.3159741
3.3830216 13.44 1.3111154
4.1960845 13.44 1.313313
4.3190217 13.440001 1.3166007
4.6317682 13.44 1.31494
5.5674396 13.44 1.3153905
6.0144992 13.44 1.3145549
6.1023688 13.440001 1.3129166
7.3232431 13.44 1.3123763
7.5781326 13.440001 1.314074
0.26442873 6.2172489e-15 1.3243704
0.50847071 6.2172489e-15 1.3259696
2.9447622 6.2172489e-15 1.3277991
3.3980041 6.2172489e-15 1.3263747
3.5167067 6.2172489e-15 1.3206228
3.7058821 6.2172489e-15 1.3272903
3.7459798 6.2172489e-15 1.3276531
3.7990017 6.2172489e-15 1.3297346
7.4225922 6.2172489e-15 1.325911
7.6983147 6.2172489e-15 1.3251595
7.82055 6.2172489e-15 1.3286641
7.8411541 6.2172489e-15 1.3226318
7.269969 0.016305441 1.3233742
4.1699686 0.11098769 1.3222692
7.269969 0.15307912 1.3241818
6.6613381e-16 0.16435456 1.3267043
2.79 0.19416171 1.3250577
4.1699686 0.20572317 1.3296794
2.79 0.22081448 1.3258011
3.1603763 0.23999998 1.3288548
7.4246817 0.23999998 1.3265247
7.3948283 0.23999999 1.3235133
0.1220412 0.27500001 1.3266207
0.14138718 0.27500001 1.3208367
7.7199688 0.28615621 1.3296919
3.5249691 0.36911696 1.3269033
7.9599686 0.38835633 1.3279312
3.6999688 0.40989196 1.3273138
7.9599686 0.52748859 1.3259038
7.7199693 0.53141582 1.32239
3.6999688 0.55472797 1.3234848
7.7199688 0.69322646 1.3265135
7.7199688 0.84576964 1.3277355
0.060092065 1.205 1.3251014
7.7199688 1.217659 1.3253963
0.23999998 1.2624376 1.3207376
0.23999999 1.2916422 1.3285005
0.23999998 1.4045354 1.3225111
6.6613381e-16 1.475841 1.3239946
7.7199688 1.4831567 1.3262376
6.6613381e-16 1.5138762 1.3249373
6.6613381e-16 1.5340493 1.3216883
0.23999998 1.5398412 1.3201942
7.7199688 1.6000371 1.3202983
6.6613381e-16 1.7328541 1.3271519
6.6613381e-16 1.7512113 1.328931
3.5249689 1.7601328 1.3290517
0.23999998 1.7889074 1.3265381
7.9599686 1.8373587 1.3285478
7.7199688 1.8730077 1.3299415
7.7199688 1.8824419 1.3283073
0.23999999 2.0060079 1.3272645
3.5249689 2.0169692 1.3215078
3.5249689 2.0370729 1.3205495
7.7199688 2.075829 1.3211344
7.7199688 2.203959 1.324544
3.5249691 2.2136948 1.3283485
3.6999688 2.2125492 1.328455
0.23999999 2.2490821 1.3228143
3.6999688 2.245564 1.3299834
6.6613381e-16 2.2780395 1.3298647
3.5249691 2.3444219 1.3257911
3.5249686 2.4494419 1.3234397
7.9599686 2.568193 1.3239141
3.6999688 2.6024735 1.3291614
3.5249689 2.6694157 1.3269151
7.7199688 2.7372262 1.3257976
3.5249689 2.7935896 1.3268824
6.6613381e-16 2.8677502 1.3227932
6.6613381e-16 2.9240565 1.3217026
3.5249686 2.9399385 1.3296806
7.7199688 3.0270638 1.3254198
6.6613381e-16 3.1475945 1.3241272
7.7199688 3.1959634 1.3223135
7.7199688 3.2185338 1.3228356
0.24000001 3.2855728 1.3234764
3.5249689 3.6745172 1.3210541
3.5249689 3.7517285 1.3251164
7.7199688 3.7725182 1.3213139
0.29471302 3.7850003 1.3226032
0.41475663 3.7850003 1.3211391
0.42522335 3.7850001 1.3206164
0.8103928 3.7850001 1.3292707
1.74 3.8360236 1.3284788
1.5509052 3.9000001 1.3223666
0.24000001 3.9429564 1.3238931
7.7199688 3.9610417 1.3299551
1.855 4.0093937 1.3262097
6.6613381e-16 4.0248442 1.321268
3.6399689 4.0617456 1.3235577
3.6399689 4.1083169 1.3258626
6.6613381e-16 4.1447659 1.3261915
7.9599686 4.1506205 1.3269634
0.23999999 4.2754803 1.3283077
6.6613381e-16 4.3009357 1.3286823
3.5249689 4.377295 1.3254439
3.5249689 4.3952742 1.3246033
7.7199688 4.6170912 1.3288865
7.7199688 4.6816478 1.3214368
0.24000001 4.6956139 1.3230784
6.6613381e-16 4.717339 1.3292471
7.9599686 4.7379317 1.3299695
6.6613381e-16 4.7688141 1.3201752
1.8121274 4.7849998 1.3257959
7.7199688 4.8059778 1.3233747
1.74 4.8114653 1.3293629
0.24000001 4.8283815 1.3216774
6.6613381e-16 4.8587341 1.3287953
0.23999998 4.8881612 1.3224062
0.55055201 4.9000001 1.3280981
0.65679789 4.9000001 1.3258374
0.9270587 4.9000001 1.3268384
1.4166931 4.9000001 1.3225669
3.5500975 4.9000006 1.3277073
2.8249688 4.9645143 1.3210483
0.23999998 5.0005884 1.3274937
2.8249688 5.0051584 1.3202816
7.9599686 5.0408282 1.3227046
7.9599686 5.0782695 1.3237561
2.9428072 5.1399994 1.3260207
1.1015753 5.1399999 1.3263649
1.3450549 5.1399999 1.3272727
1.6595188 5.1399999 1.3238328
2.9021564 5.1399999 1.3248984
3.0096908 5.1399999 1.3282171
3.0209453 5.1399999 1.3204881
7.9599686 5.140903 1.3283635
7.9599686 5.1939445 1.327399
7.7199688 5.30721 1.3247627
7.9599686 5.3575263 1.3252367
3.6999688 5.3658423 1.3223264
3.5249691 5.439364 1.3214861
3.6999688 5.4345665 1.3271508
7.9599686 5.4571939 1.3249199
6.6613381e-16 5.5611496 1.3263261
6.6613381e-16 5.7421336 1.3227421
0.23999998 5.7635546 1.328997
6.6613381e-16 5.8924446 1.3284097
3.5249689 6.0656328 1.3258243
3.6999688 6.0620413 1.3204994
6.6613381e-16 6.1816225 1.325001
6.6613381e-16 6.2077045 1.3200231
0.24000001 6.2647352 1.3251491
3.5249686 6.5401626 1.3232327
3.6999688 6.8288212 1.324967
3.6999688 6.8674984 1.3226064
3.6999688 6.8770185 1.3241273
3.5249691 6.9327297 1.3209853
0.23999999 7.0778403 1.3230623
3.5249686 7.2758794 1.3200556
6.6613381e-16 7.2844062 1.3214461
3.5249689 7.5440121 1.3231058
6.6613381e-16 7.601615 1.329263
0.25484493 7.665 1.3277855
0.54523838 7.665 1.3288869
0.63618028 7.665 1.3279145
0.70231724 7.665 1.322022
0.91293979 7.665 1.3245627
1.9549533 7.665 1.3245366
2.0777998 7.665 1.3213432
2.0939844 7.665 1.3215756
2.8042493 7.665 1.3214447
2.884397 7.665 1.3245802
3.1293557 7.665 1.3291693
3.3073931 7.665 1.3274949
6.6613381e-16 7.7118731 1.3247849
6.6613381e-16 7.7453198 1.3251884
6.6613381e-16 7.7801857 1.3243171
0.38879892 7.7800002 1.3211881
0.49400041 7.7800002 1.3263409
0.63916332 7.7800002 1.3289064
0.77631974 7.7799997 1.3260946
1.5546143 7.7800002 1.3252965
2.4224355 7.7800007 1.3287297
3.2976565 7.7800007 1.3267474
3.5249686 7.8159914 1.3265624
7.9599686 7.8427291 1.3221885
3.5249691 7.8871789 1.3274465
6.6613381e-16 7.9154239 1.326576
7.9599686 7.9610958 1.3214865
7.7199688 7.9713879 1.320978
0.23999998 7.9835048 1.3231291
0.24000001 8.0048409 1.3289582
7.7199688 8.0266294 1.3248159
7.7199688 8.0424767 1.3244631
7.7199688 8.0766649 1.3217223
7.7199688 8.1731558 1.3245436
3.6999688 8.2713995 1.3234476
3.6999686 8.2831907 1.324249
6.6613381e-16 8.3303099 1.3287278
3.6461782 8.5 1.3239791
0.23999999 8.5313787 1.3259559
0.23999999 8.7068205 1.3278049
0.23999999 8.7454414 1.3206327
0.23999998 9.0928221 1.326478
0.23999999 9.2502813 1.3296478
3.6999688 9.4019651 1.3282514
7.7199688 9.4013786 1.3238188
3.6999688 9.4219437 1.3236351
3.5249691 9.4321184 1.3271564
0.23999998 9.499465 1.3264431
3.6999688 9.5576353 1.3207681
3.5249689 9.6243916 1.3248346
7.7199688 9.7493505 1.3290381
7.7199688 9.7977962 1.3252425
7.9599686 9.7914047 1.3299606
7.9599686 9.8073664 1.3211242
7.7199688 9.8253183 1.3282703
7.7199688 9.9830103 1.3234842
6.6613381e-16 10.01613 1.3297251
7.1585798 10.199999 1.3243827
0.9832859 10.2 1.3235569
1.4748847 10.2 1.3263084
1.7655499 10.2 1.3241808
3.534678 10.2 1.3231597
6.5036459 10.2 1.3257712
6.5813246 10.2 1.3224415
7.4478502 10.200001 1.328095
4.8999686 10.235798 1.3206688
7.9599686 10.299187 1.324118
4.8999686 10.315483 1.3201607
0.23999999 10.320078 1.3286879
2.5549688 10.353489 1.328876
6.6613381e-16 10.376114 1.328869
0.23999998 10.414927 1.3210412
0.34722194 10.439999 1.3250576
2.2537661 10.439999 1.3250982
1.2015425 10.44 1.3265913
1.3484309 10.44 1.3289763
1.5986779 10.44 1.3241032
1.6006966 10.44 1.3267796
1.6151088 10.44 1.3258224
1.7509642 10.44 1.3221962
3.5327888 10.44 1.3290212
6.3569508 10.440001 1.3255121
6.651 10.44 1.328768
6.6612587 10.44 1.3247336
6.6954098 10.44 1.3222367
7.9599686 10.57922 1.3268516
3.2950001 10.639198 1.322551
0.24000001 10.651296 1.32662
7.7199688 10.664961 1.3202507
7.9599686 10.712921 1.3293971
7.9599686 10.728462 1.3228445
0.24000001 10.789084 1.3216136
3.4699998 10.794746 1.3238144
3.4700003 10.795086 1.3294007
6.6613381e-16 10.928768 1.3211669
7.7199688 10.974113 1.3257136
7.9599686 11.11497 1.3293457
3.47 11.301871 1.3247623
0.23999999 11.392553 1.3234514
3.2950001 11.398472 1.3245312
3.2950001 11.469304 1.3279436
0.23999998 11.476966 1.3271487
6.6613381e-16 11.549007 1.3261684
7.9599686 11.678426 1.3232033
6.6613381e-16 11.730275 1.32328
6.6613381e-16 11.765929 1.3263845
6.6613381e-16 11.800486 1.3200434
7.9599686 11.999081 1.3273355
3.47 12.033681 1.3288594
0.23999999 12.053741 1.321658
0.23999999 12.073327 1.3219529
3.2950001 12.075943 1.3207057
3.4699998 12.108009 1.3224154
7.7199688 12.116845 1.3225811
7.9599686 12.138695 1.3205519
7.7199688 12.245942 1.3288181
7.7199688 12.399115 1.3276392
7.9599686 12.405105 1.3227029
3.4700003 12.436461 1.323774
3.2950001 12.444755 1.3206718
7.9599686 12.478571 1.3248762
7.7199688 12.525932 1.3288673
3.47 12.723078 1.3263022
6.6613381e-16 12.825649 1.3213794
7.7199688 12.90688 1.3213261
7.7199688 13.018169 1.32961
3.2950001 13.081146 1.32093
7.7199688 13.147838 1.3249224
0.15214555 13.199999 1.3286805
2.5775082 13.199999 1.328511
2.6677814 13.199999 1.3205149
2.8038018 13.199999 1.3203038
5.4378295 13.199999 1.3230062
5.5947995 13.199999 1.3207194
0.028011145 13.2 1.3260248
0.60628062 13.2 1.3246485
0.61704779 13.2 1.3269057
1.0697712 13.200001 1.3206649
1.5990919 13.2 1.3228092
1.9032516 13.2 1.3229358
3.0916305 13.2 1.3248384
3.4383976 13.2 1.3229866
4.7857447 13.2 1.3242848
5.8097506 13.2 1.3233688
6.231359 13.2 1.3233887
6.7357736 13.2 1.3278298
7.0163069 13.2 1.3297929
2.1538327e-14 13.370139 1.3230816
1.5665749 13.439999 1.3200146
2.0793974 13.439999 1.3252776
2.3538699 13.439999 1.3242773
3.9728646 13.439999 1.324049
5.9298162 13.439999 1.3219371
6.4914026 13.439999 1.3221219
6.54599 13.439999 1.323521
7.3907127 13.439999 1.324917
7.6802826 13.439999 1.320977
0.44885439 13.440001 1.3263417
0.8705582 13.44 1.3206013
1.557112 13.44 1.3291004
1.8031577 13.440001 1.3242275
2.3231883 13.44 1.3296419
3.8166118 13.44 1.3247744
3.9537284 13.440001 1.3201424
4.1641746 13.44 1.322892
5.0847149 13.440001 1.3232298
6.4893293 13.44 1.3217595
7.0734177 13.44 1.3240917
7.5865917 13.440001 1.3255268
7.9242625 13.44 1.327992
0.13636775 2.7533531e-14 1.3300543
0.50392729 6.2172489e-15 1.336128
0.51047939 6.2172489e-15 1.3349692
4.0611081 6.2172489e-15 1.3316427
7.692256 6.2172489e-15 1.3321416
7.9599686 0.0025964498 1.3301942
4.1699686 0.10252327 1.3380996
0.23999998 0.12112705 1.3360369
4.1699686 0.13722336 1.3313575
7.269969 0.16485721 1.3366742
0.24000001 0.21970959 1.3306019
6.6613381e-16 0.22521356 1.3363283
4.1699686 0.23318787 1.3360645
7.4450641 0.23999998 1.3310615
7.7013874 0.23999998 1.3326986
0.55013162 0.23999999 1.331327
0.57524818 0.23999999 1.3312974
2.8356547 0.23999999 1.3315467
3.5536835 0.23999999 1.3372558
3.7152932 0.23999999 1.3308983
3.7445159 0.23999999 1.3315539
3.7886391 0.23999999 1.3356247
7.5563407 0.24000001 1.3317881
7.6165619 0.23999999 1.3306782
0.24000001 0.26812267 1.3341016
7.7199688 0.37577659 1.3326925
3.5249689 0.5682829 1.3321744
7.7199688 0.64003527 1.3321471
3.5481796 0.68000001 1.3386211
7.7199688 0.72754371 1.3341852
7.7199688 0.76241636 1.3382717
7.7199688 0.87127602 1.3320565
7.9599686 0.91222572 1.3315334
7.9599686 1.3663862 1.3390613
7.7199688 1.4929742 1.3324523
0.23999998 1.6433928 1.3361777
7.9599686 1.6716301 1.3301605
3.5249689 1.7338187 1.3373971
7.9599686 1.7775613 1.3398936
7.7199688 1.850799 1.3339809
6.6613381e-16 2.195518 1.3364112
6.6613381e-16 2.4395504 1.3363755
0.23999999 2.6316538 1.3385853
3.6999688 2.6551116 1.3357857
7.9599686 2.6790743 1.3315836
6.6613381e-16 2.7024925 1.3366174
7.7199688 2.757561 1.3337688
7.7199688 3.0111887 1.3388717
0.24000001 3.1203802 1.3340048
6.6613381e-16 3.2687926 1.3345529
3.6999688 3.2661662 1.3347636
3.6999688 3.3818901 1.3340157
7.7199688 3.4894249 1.3397247
0.24000001 3.4961257 1.3328452
6.6613381e-16 3.5071275 1.3334328
3.6999688 3.5030141 1.3355024
0.23999998 3.5983243 1.3391337
6.6613381e-16 3.6055136 1.3369393
6.6613381e-16 3.7267895 1.3375368
3.5249691 3.7204416 1.3313373
0.27331734 3.7849998 1.3373042
0.46570972 3.7849998 1.3356211
0.72403789 3.7850003 1.3361884
1.0131857 3.7850001 1.334306
1.6877553 3.7849998 1.3339097
1.74 3.7866364 1.3304404
1.8072191 3.7849998 1.3373916
6.6613381e-16 3.8559589 1.3302845
7.9599686 3.8500245 1.3360653
1.855 3.8678489 1.3317071
3.5249689 3.8991287 1.3375124
0.61267364 3.9000001 1.3344805
0.89151055 3.9000001 1.3320495
0.96980458 3.9000001 1.3368366
1.0671068 3.9000001 1.3323938
1.1398695 3.9000001 1.3325647
1.5710025 3.9000001 1.3346885
3.577266 3.9000003 1.3366129
3.662447 3.9000001 1.3348734
3.6950469 3.9000001 1.339312
1.855 3.9173489 1.3371661
3.6399689 3.9528842 1.3358338
0.23999999 3.9840214 1.337153
1.74 3.9899802 1.3370595
1.855 3.9879901 1.3305254
3.6399689 4.0610824 1.3301778
7.7199688 4.1185074 1.3350915
3.6399689 4.1451368 1.3315277
7.9599686 4.1712646 1.3300018
0.23999998 4.4154668 1.3367898
3.5249689 4.4753575 1.338742
7.9599686 4.5437479 1.334078
7.7199688 4.5950618 1.3301344
3.5249691 4.6778727 1.3315852
3.5249689 4.692709 1.3382175
6.6613381e-16 4.7201767 1.3347253
6.6613381e-16 4.7403784 1.333792
0.24000001 4.7603688 1.3342938
1.8006465 4.7849998 1.330857
1.74 4.7932448 1.3382417
1.855 4.8114886 1.3315732
6.6613381e-16 4.8314209 1.33363
1.74 4.8761864 1.3398502
0.24000001 4.8925343 1.3319345
3.6399689 4.8950205 1.3357153
0.43937492 4.9000001 1.336221
0.56810552 4.9000001 1.3354826
1.8232629 4.9000001 1.3304312
1.9249688 4.9001145 1.3349351
6.6613381e-16 4.9255586 1.3390666
1.9249687 4.9477887 1.3359392
6.6613381e-16 4.9703875 1.3381122
7.9599686 5.0492477 1.3348067
1.9249687 5.1249323 1.3302389
7.7199688 5.1302762 1.3328953
0.54824448 5.1399999 1.3361269
0.87776941 5.1399999 1.3325008
1.5164833 5.1399999 1.3345773
1.5748225 5.1399999 1.3353479
1.8525956 5.1399999 1.3303115
2.9586294 5.1399999 1.3315864
3.0194516 5.1399999 1.3387873
3.5773766 5.1399999 1.3309597
6.6613381e-16 5.1679416 1.3368946
3.6999688 5.2393947 1.3334641
7.7199688 5.2934442 1.3330315
6.6613381e-16 5.3462238 1.3312237
3.5249689 5.4273129 1.3335327
3.6999688 5.5700545 1.3384008
7.9599686 5.6708541 1.3388095
6.6613381e-16 5.8228083 1.3323905
3.6999688 5.8246288 1.3327532
3.6999688 5.8559389 1.3389201
3.6999688 6.0175905 1.3356568
3.5249691 6.0259361 1.3325219
7.9599686 6.0825381 1.3347324
3.5249689 6.148036 1.3328249
0.24000001 6.2126422 1.3335462
7.7199688 6.2196817 1.3372948
0.24000001 6.2784634 1.3332188
7.7199688 6.3199568 1.3396183
7.9599686 6.3619299 1.3345581
3.5249686 6.4174576 1.3329961
6.6613381e-16 6.4757648 1.3345846
0.23999998 6.4814806 1.3327065
6.6613381e-16 6.5699363 1.339956
7.7199688 6.6175289 1.3315835
6.6613381e-16 6.6404419 1.3309596
0.23999999 6.6430149 1.333107
3.5249686 6.7808399 1.3337965
3.5249689 6.817091 1.3339902
7.7199688 6.9886193 1.3364584
3.6999688 7.0121422 1.3351965
7.7199688 7.0136218 1.3392673
7.7199688 7.2294912 1.332209
7.9599686 7.225348 1.3363347
6.6613381e-16 7.292345 1.3380163
3.5249686 7.3486824 1.3326859
0.23999999 7.378428 1.3346038
7.9599686 7.4391356 1.3332188
7.9599686 7.461791 1.3376458
0.24000001 7.5160098 1.3385742
0.23999998 7.527339 1.3309577
0.23999998 7.6079807 1.3319172
0.36992034 7.665 1.3387935
0.84700942 7.665 1.3398346
1.7638094 7.6649995 1.339847
2.0661879 7.665 1.339905
2.1168106 7.665 1.3365834
2.423058 7.665 1.335508
2.9465778 7.665 1.3343734
3.362751 7.665 1.3399963
3.5249691 7.6730099 1.3350458
0.24000001 7.6963592 1.3373518
6.6613381e-16 7.7409554 1.3343008
0.23999998 7.7810202 1.3339732
0.48047239 7.7800007 1.3382728
1.7510881 7.7800002 1.3399529
1.8506811 7.7800002 1.3379192
2.4947076 7.7800002 1.3323309
2.621489 7.7799997 1.3342769
2.7792792 7.7800002 1.3395572
0.23999998 7.7953954 1.3330797
7.7199688 7.795927 1.3388329
6.6613381e-16 7.864356 1.337018
6.6613381e-16 7.8898787 1.3380221
6.6613381e-16 7.9203558 1.3357308
6.6613381e-16 8.0314255 1.3304061
7.9599686 8.1690292 1.336033
0.24000001 8.1863947 1.3346514
7.7199688 8.2633944 1.3334844
6.6613381e-16 8.3408117 1.3321786
6.6613381e-16 8.4160261 1.3323088
3.6999688 8.4210186 1.3374177
0.24000001 8.4684858 1.3391534
3.6999688 8.4857779 1.3350798
6.6613381e-16 8.5087404 1.3343837
0.24000001 8.5931969 1.3393215
0.23999999 8.6480827 1.3306538
0.23999999 8.6593571 1.3316033
7.7199688 8.742424 1.3372072
7.7199688 8.7903967 1.3310643
7.9599686 8.9283037 1.3355116
7.7199688 9.0964489 1.3378093
7.7199688 9.1838198 1.3303196
3.5288584 9.3999996 1.3378921
6.6613381e-16 9.5132875 1.337257
3.6999688 9.595993 1.33305
7.9599686 9.69767 1.3333049
6.6613381e-16 9.7932262 1.3346199
6.6613381e-16 9.8424797 1.3303009
6.6613381e-16 9.8698721 1.3334464
3.6999688 9.8775711 1.3344424
7.9599686 9.9126921 1.336249
6.6613381e-16 9.9711494 1.3306597
6.6613381e-16 10.03884 1.3380364
7.7199688 10.146545 1.3320708
2.5267031 10.199999 1.3326123
0.79969925 10.200001 1.3355063
1.4450092 10.2 1.3303699
1.7579116 10.2 1.3360773
2.3202899 10.2 1.3308393
3.641578 10.200001 1.3364326
3.6522737 10.2 1.3377888
5.3041363 10.2 1.3344104
5.7410965 10.2 1.330848
6.2689619 10.2 1.3332876
6.3638072 10.2 1.3372672
6.5611949 10.2 1.3397648
6.6199722 10.2 1.3328711
6.7617469 10.2 1.3356556
3.8199687 10.216552 1.3337194
7.7199688 10.27486 1.3350668
7.9599686 10.366689 1.3392484
6.6613381e-16 10.382837 1.3335998
7.7199688 10.384989 1.3343341
3.4549685 10.395468 1.3361796
2.4982264 10.439999 1.3394343
0.94964975 10.44 1.3374891
1.0241078 10.44 1.3396229
1.4493451 10.44 1.3342721
1.4603802 10.44 1.3336993
1.4951166 10.44 1.3354982
1.7434745 10.44 1.3388944
5.1508598 10.44 1.3353491
5.1815734 10.440001 1.3349532
5.2220478 10.44 1.3336713
5.5015841 10.44 1.3317775
5.8198519 10.44 1.3350775
6.6488581 10.44 1.3353543
6.9565697 10.44 1.3311846
