# .PCD v0.7 - Point Cloud Data file format
VERSION 0.7
FIELDS x y z
SIZE 4 4 4
TYPE F F F
COUNT 1 1 1
WIDTH 1559
HEIGHT 1
VIEWPOINT 0 0 0 1 0 0 0
POINTS 1559
DATA ascii
0.034243029 13.44 0.25388652
1.7315791 13.44 0.25006896
2.319984 13.440001 0.25708073
2.3639152 13.44 0.25832817
3.1524949 13.440001 0.25585818
3.2295775 13.44 0.25217319
4.1082945 13.44 0.25738144
4.8001251 13.44 0.25891188
5.8166695 13.44 0.25333041
6.402451 13.44 0.25411192
6.4649467 13.44 0.25935233
7.5426717 13.44 0.25026041
0.38596338 6.2172489e-15 0.26375586
3.3153446 6.2172489e-15 0.26793927
3.8657684 6.2172489e-15 0.26459306
3.9250684 6.2172489e-15 0.26884872
4.2392464 6.2172489e-15 0.26248151
4.6201391 6.2172489e-15 0.26203185
4.8652897 6.2172489e-15 0.26796252
5.179759 6.2172489e-15 0.26170748
5.3612142 6.2172489e-15 0.26165223
6.007503 6.2172489e-15 0.26157719
6.0516782 6.2172489e-15 0.26813483
6.0753384 6.2172489e-15 0.26788118
6.0982695 6.2172489e-15 0.26762095
6.4438143 6.2172489e-15 0.2685405
6.5666776 6.2172489e-15 0.26616624
6.7652483 6.2172489e-15 0.26232642
7.0660748 6.2172489e-15 0.26161277
7.7346659 6.2172489e-15 0.26220554
7.9599686 0.014649595 0.2610493
2.79 0.034531701 0.26271445
2.79 0.12454263 0.26356113
6.6613381e-16 0.14895363 0.26215494
0.23999999 0.15411516 0.26015383
0.27972701 0.23999998 0.26953107
5.7405071 0.23999998 0.26664287
6.6281099 0.23999998 0.26321924
7.9494219 0.23999998 0.2679894
0.50363994 0.23999999 0.26861161
0.60116529 0.23999999 0.26137701
3.407717 0.23999999 0.26162136
3.5371749 0.23999999 0.26143858
3.6999409 0.23999999 0.26716658
4.3189507 0.23999999 0.26295462
4.9506359 0.23999999 0.26979017
5.0386162 0.23999999 0.26016164
6.4839096 0.24000001 0.26694927
7.7199688 0.24454294 0.26339859
7.7860317 0.24000001 0.26029417
0.23999999 0.26341906 0.26008201
0.082809672 0.27500001 0.26857251
0.15996443 0.27500001 0.26790529
7.9599686 0.39800072 0.26810515
7.7199688 0.40922093 0.26105928
3.5249689 0.67640328 0.26235783
7.7199683 0.74826455 0.2672863
7.7199688 1.0245037 0.26312417
0.1984023 1.205 0.26228014
6.6613381e-16 1.2425581 0.26785204
7.7199688 1.4392723 0.2624408
0.23999999 1.8086846 0.26318002
0.23999999 1.8239963 0.26973453
3.6999688 1.8750868 0.26937413
7.7199688 1.9229066 0.26605618
0.23999999 1.9667799 0.26115844
3.6999688 2.0348444 0.26300502
6.6613381e-16 2.0516107 0.26057339
0.23999999 2.0836909 0.2686893
3.6999688 2.1073356 0.26441064
3.5249689 2.2483377 0.2648904
7.7199688 2.3376706 0.26294219
7.9599686 2.3769383 0.26023915
7.9599681 2.4744704 0.26508048
6.6613381e-16 2.5666146 0.26505101
3.5249689 2.6770518 0.26330259
7.9599686 2.736093 0.26208928
7.9599686 2.7976503 0.26223373
0.24000001 2.9288054 0.26425844
7.9599686 2.9546957 0.26239401
7.7199688 2.9774401 0.26428151
6.6613381e-16 2.9945941 0.26026583
7.9599686 3.0489447 0.26815969
3.6999688 3.0500653 0.26504552
3.5249691 3.1596694 0.26285368
7.9599681 3.2122114 0.26611272
0.23999999 3.301621 0.26568007
7.7199693 3.3554745 0.26142696
6.6613381e-16 3.5442443 0.26306182
3.5249691 3.5691798 0.26764932
7.7199688 3.6064782 0.26898855
0.23999999 3.6945689 0.26951182
0.23999999 3.7397873 0.26376933
0.39518231 3.7850003 0.26374361
7.9599686 3.8159103 0.26573932
0.24000001 3.8688126 0.26071388
1.855 3.8706932 0.26946276
0.23999999 3.8969843 0.26683694
0.48792714 3.9000001 0.26121879
0.72368056 3.9000001 0.26953158
3.5249691 3.9596305 0.2645953
7.9599686 3.9572155 0.26807034
1.7575181 4.0149999 0.26939809
1.7891673 4.0149999 0.26510739
3.6399689 4.0921474 0.26820552
3.6399689 4.1318583 0.26739782
3.5249689 4.2080584 0.26851621
7.9599686 4.2030239 0.2637012
7.9599686 4.3258128 0.26364404
3.6399689 4.6262484 0.2655893
7.9599681 4.6594734 0.26654485
7.7199688 4.7006593 0.2695106
0.23999999 4.7255731 0.26846206
0.23999998 4.743454 0.26879579
0.87723094 4.7699995 0.26947957
0.31595361 4.77 0.26182449
3.5951002 4.77 0.2660934
7.9599686 4.7923465 0.26193851
1.9249687 4.8570895 0.26544553
2.8249688 4.8703642 0.2674059
7.9599686 4.8875756 0.26198012
7.9599686 4.9151587 0.26703626
3.6138897 5.0099998 0.26356381
0.28597122 5.0100002 0.26247162
0.93889159 5.0100002 0.26283586
3.1025529 5.0100002 0.269375
3.3144588 5.0100002 0.26722369
3.3587251 5.0100002 0.26473916
3.5237038 5.0100002 0.26717979
3.5785022 5.0100002 0.26617932
7.9599686 5.0855064 0.26751214
7.9599686 5.0992184 0.26155508
6.6613381e-16 5.1142912 0.26122242
6.6613387e-16 5.1534543 0.26212001
7.7199688 5.1671753 0.26285082
7.9599686 5.1613297 0.26739991
7.7199688 5.2887416 0.26478338
7.7199688 5.3790522 0.2614553
7.9599686 5.3776274 0.26989782
7.7199688 5.424624 0.26298138
3.5249689 5.4488564 0.26066887
7.9599686 5.5790319 0.26559711
0.23999999 5.613874 0.26425946
7.7199688 5.7247381 0.26650661
0.24000001 5.7500043 0.26686952
7.7199688 5.7700644 0.26731962
0.23999999 5.7969761 0.26403669
7.7199688 5.9691339 0.26832816
3.5249686 5.9890862 0.26317698
3.6999688 6.0104208 0.26985094
0.23999999 6.0984306 0.26428005
6.6613381e-16 6.1087914 0.26422304
7.9599686 6.1128435 0.2660937
3.5249689 6.1798677 0.26749575
3.5249686 6.1926551 0.26456299
7.7199688 6.2287521 0.26612654
7.9599686 6.2486506 0.26367992
7.9599686 6.5463729 0.267932
3.6999688 6.5537257 0.26524594
3.5249689 6.6059089 0.2605283
0.23999999 6.6763725 0.26051462
3.5249689 6.6781025 0.26689321
7.7199688 6.702579 0.26405412
7.9599686 6.7449179 0.26473862
0.23999998 6.8808827 0.26908135
0.23999999 7.0035567 0.26819798
3.5249686 7.062036 0.26091903
6.6613381e-16 7.1198874 0.26795042
3.6999688 7.1166887 0.2613292
3.5249689 7.1250725 0.26892573
6.6613381e-16 7.1539207 0.26858899
3.6999688 7.1529088 0.26376212
6.6613381e-16 7.2672639 0.26089281
0.23999998 7.4778929 0.26608562
7.7199693 7.4784956 0.26189226
6.6613381e-16 7.5327344 0.26162603
0.5252862 7.665 0.26171744
0.78115916 7.665 0.26669371
0.97109109 7.665 0.26066414
1.9393828 7.665 0.26199961
2.1692023 7.665 0.26411274
2.22312 7.665 0.26674619
2.8476453 7.665 0.26825458
3.2243629 7.665 0.26748517
0.24000001 7.6809378 0.26177609
0.91986227 7.7799997 0.26780969
2.4790442 7.7800007 0.26924634
2.7956605 7.7799997 0.26275867
3.3082178 7.7800007 0.26946563
0.23999999 7.8776555 0.26687315
3.5249691 7.8912358 0.26122332
3.6999688 7.9150414 0.26043013
7.9599686 7.9356489 0.26258957
3.6999688 7.9486113 0.26681188
7.9599686 8.006196 0.26830903
3.6999686 8.0709391 0.26926377
7.9599686 8.0860853 0.268994
7.9599686 8.2370768 0.26873761
7.9599686 8.2848625 0.26859772
6.6613381e-16 8.3874168 0.26215351
3.6999688 8.3942337 0.26255369
7.9599686 8.3940296 0.26887757
7.9599681 8.4277191 0.26888782
7.9599686 8.4663477 0.26856157
3.6345809 8.5 0.26036072
7.7199688 8.5535622 0.26244342
6.6613381e-16 8.6174593 0.26281536
0.24000001 8.9045401 0.2600483
6.6613381e-16 8.953022 0.26001599
7.7199688 9.0097475 0.26902705
7.7199688 9.0796623 0.26611686
6.6613381e-16 9.0855923 0.2612794
0.23999999 9.1380568 0.2675781
7.7199688 9.2389889 0.26940322
6.6613381e-16 9.3357735 0.26672763
7.7199688 9.3746414 0.26369941
3.5758052 9.3999996 0.26441813
0.23999999 9.4181585 0.26635477
3.6999691 9.4383974 0.26087055
7.9599686 9.544239 0.2615135
7.7199688 9.5556192 0.26210871
6.6613381e-16 9.6589432 0.26128954
0.23999998 9.6692772 0.2647633
6.6613381e-16 9.7752504 0.26880628
7.7199688 9.9535761 0.26283154
6.6613387e-16 10.170948 0.26751024
3.6999691 10.171768 0.26692253
4.6693702 10.199999 0.26263836
1.1607151 10.2 0.26122239
1.5998223 10.2 0.26610821
1.8883227 10.200001 0.26524949
2.0175922 10.2 0.2658217
2.0200062 10.2 0.26355726
4.876298 10.2 0.26685616
5.0735216 10.2 0.26030546
5.1237187 10.2 0.26584437
5.2302971 10.200001 0.26174104
6.4892411 10.2 0.2639153
6.5288095 10.2 0.26930168
6.6224756 10.2 0.26727766
7.0439978 10.2 0.26769453
7.3069768 10.2 0.26735774
7.346498 10.2 0.26371321
7.7199688 10.349772 0.26737899
0.26449677 10.44 0.26262593
0.30844226 10.440001 0.26879108
0.57263368 10.44 0.26844811
0.90614855 10.440001 0.26821211
1.0937347 10.44 0.26518068
1.4109522 10.44 0.26863185
1.679235 10.440001 0.26844752
2.3847268 10.44 0.2683388
3.6586907 10.44 0.26681396
3.6811969 10.44 0.26780674
4.0643516 10.44 0.26633373
4.8171101 10.44 0.26351851
6.046196 10.44 0.26381657
6.8405032 10.44 0.26008222
7.6081724 10.44 0.26001173
7.9599686 10.519691 0.26996449
6.6613381e-16 10.541851 0.26703402
7.9599686 10.661539 0.26519874
7.7199688 10.753151 0.26891115
6.6613381e-16 10.793429 0.26322645
7.9599686 10.799743 0.26141077
3.5249689 10.816617 0.26999781
0.23999999 11.151861 0.26164141
3.5249686 11.250823 0.26451725
7.7199688 11.259374 0.2603668
3.6999688 11.332912 0.26793244
0.23999999 11.376436 0.26659203
7.7199688 11.384683 0.26703432
3.6999688 11.403392 0.26986954
3.6999688 11.515718 0.2645939
7.7199688 11.518767 0.26789188
0.24000001 11.641337 0.2617977
7.9599686 11.69024 0.26235855
0.23999998 11.723562 0.26945496
7.9599686 11.737714 0.26463965
6.6613381e-16 11.764089 0.26090336
3.5249689 11.780239 0.26036793
0.23999998 11.79668 0.26002049
6.6613381e-16 11.804502 0.26074976
7.9599686 11.854095 0.26903826
6.6613381e-16 11.921947 0.26299024
6.6613381e-16 11.974892 0.2658765
6.6613381e-16 12.030581 0.26297224
7.7199688 12.096007 0.26852301
6.6613381e-16 12.145405 0.26302853
7.9599686 12.199491 0.26355788
7.7199688 12.295627 0.2625649
0.23999999 12.34899 0.26152286
6.6613387e-16 12.359262 0.26127279
7.7199688 12.377955 0.26100138
6.6613381e-16 12.442384 0.26985237
3.6999688 12.486672 0.26485562
3.6999688 12.504014 0.2674256
6.6613381e-16 12.540529 0.26721752
3.5249689 12.547358 0.26731685
7.7199688 12.574918 0.26110902
3.5249686 12.624776 0.2633732
3.5249691 12.645213 0.26406759
3.5249691 12.671417 0.2673254
3.6999688 12.722265 0.26087582
0.23999999 12.802258 0.26921353
7.9599686 12.859071 0.26892075
7.7199688 12.862732 0.26475388
0.23999999 12.95108 0.26769376
7.7199688 13.070049 0.26287779
7.959969 13.107544 0.26192528
7.7199688 13.12007 0.26139638
6.6613381e-16 13.155313 0.26728237
7.9599686 13.175646 0.2632494
0.13835207 13.199999 0.26022762
2.8656206 13.199999 0.26689589
5.3439684 13.199999 0.26350573
0.38929832 13.2 0.2670086
0.75533712 13.2 0.26670575
0.9752419 13.2 0.26620716
1.1904041 13.2 0.2686801
1.4062976 13.2 0.26780799
1.6220096 13.2 0.26085043
1.7043796 13.2 0.2629551
1.9260509 13.200001 0.26507717
2.0419214 13.2 0.26278359
2.3218861 13.2 0.26346761
2.343749 13.200001 0.26544201
2.9743598 13.2 0.2619279
3.4063106 13.200001 0.26992506
3.5456398 13.200001 0.26922977
3.6620982 13.2 0.26648432
3.7075834 13.2 0.26963687
4.1409478 13.2 0.26214635
6.2258434 13.2 0.26453039
6.5906525 13.200001 0.26459739
7.2693911 13.2 0.26222855
7.7698569 13.2 0.26254621
0.1719877 13.439999 0.26593399
3.0394182 13.439999 0.2601234
7.7120152 13.439999 0.26819015
1.3429934 13.44 0.26999265
2.2209113 13.44 0.26983741
2.747293 13.440001 0.26818532
3.4254441 13.44 0.26766771
3.7875843 13.44 0.26954958
4.6590657 13.440001 0.2638599
4.819767 13.44 0.26638335
5.5418487 13.440001 0.26729825
5.5750775 13.440001 0.26143801
5.7374206 13.44 0.26753604
5.8890085 13.44 0.26302767
6.141593 13.44 0.26834378
6.6424255 13.44 0.26645893
6.7640057 13.44 0.26287881
7.1768532 13.44 0.26982066
0.03442413 2.7533531e-14 0.27112877
0.66761637 6.2172489e-15 0.27118051
2.8118608 6.2172494e-15 0.27979934
3.3472171 6.2172489e-15 0.27056774
3.5836177 6.2172489e-15 0.27771032
3.8229671 6.2172489e-15 0.27643746
4.6264896 6.2172489e-15 0.27535841
5.4040618 6.2172489e-15 0.2773633
5.6171317 6.2172489e-15 0.27591863
5.9788132 6.2172489e-15 0.27510759
6.271615 6.2172489e-15 0.27203977
6.5637894 6.2172489e-15 0.27874771
6.5807142 6.2172489e-15 0.27219519
6.6756587 6.2172489e-15 0.27672073
6.8850727 6.2172489e-15 0.27419308
6.9447494 6.2172489e-15 0.27294743
7.2086959 6.2172489e-15 0.27353761
2.7900002 0.025165986 0.27620527
0.70999998 0.070895545 0.27449906
0.24000001 0.10918759 0.27310461
0.23999998 0.12016121 0.27820304
3.8029194 0.23999998 0.27031642
4.7406712 0.23999998 0.27556267
5.5076571 0.23999998 0.27000022
6.4538393 0.23999998 0.27801815
6.6612015 0.23999998 0.27630737
7.3159332 0.23999998 0.2717354
2.8395464 0.24000001 0.27451017
3.6961243 0.24000001 0.27620375
4.3100557 0.24000001 0.27388671
4.3881121 0.23999999 0.27745089
4.6444592 0.23999999 0.27843434
4.7748532 0.23999999 0.27498507
4.9115162 0.23999999 0.27724051
5.3160353 0.23999999 0.27960378
5.4324698 0.23999999 0.27392545
5.501071 0.23999999 0.27411819
5.9704866 0.23999999 0.27563033
6.6702204 0.23999999 0.27784646
7.3397455 0.23999999 0.2778087
7.4161458 0.23999999 0.27839747
7.9384222 0.24000001 0.27324867
0.069811434 0.27500001 0.27476156
0.23999999 0.27091998 0.27587563
7.7199688 0.28237572 0.27854985
3.5249691 0.31642282 0.27234051
7.9599686 0.35063481 0.2756286
7.9599686 0.55586165 0.27234834
3.5408194 0.68000001 0.27269536
7.7199688 1.4498645 0.27950603
3.5249689 1.5852444 0.27442592
0.24000001 1.6328467 0.27457517
7.7199693 1.6460526 0.27684504
3.5249691 1.7393111 0.27342218
3.6999688 1.7590866 0.27390975
6.6613381e-16 1.9013245 0.27581918
7.9599686 1.9410577 0.2760762
7.7199688 2.2601335 0.27815288
3.5249689 2.330904 0.27573895
3.6999688 2.469275 0.27442136
7.7199688 2.4796526 0.27096862
3.5249686 2.4883332 0.27230757
3.5249689 2.6775951 0.27601221
0.23999999 2.8139386 0.27084196
3.6999688 2.8393619 0.2739464
3.6999688 2.8674304 0.27498668
0.23999999 2.8733292 0.27982837
7.9599686 2.8742249 0.27884701
0.23999999 2.9565496 0.27524233
3.6999688 2.9778569 0.27435049
6.6613381e-16 3.0601563 0.27636686
7.9599686 3.0615392 0.27703774
3.6999691 3.4388478 0.27384445
0.23999999 3.4870396 0.27899078
0.23999998 3.4973295 0.27594611
3.6999688 3.4916506 0.27278212
7.9599686 3.5521383 0.27419853
3.5249689 3.5865192 0.27139226
3.5249689 3.6126597 0.27088454
0.23999999 3.7170768 0.27674901
1.0192554 3.7850001 0.27006936
1.3320223 3.7850001 0.2738544
1.8228047 3.7850003 0.27165288
1.74 3.7959378 0.27602187
3.6999691 3.8832698 0.27309045
0.37812161 3.9000001 0.27848968
0.52656507 3.9000001 0.27203935
0.56462026 3.9000001 0.27416989
0.67648095 3.8999999 0.27222341
1.1340071 3.9000001 0.27303395
1.4344537 3.9000001 0.27422118
1.5338573 3.9000001 0.27991593
1.5468343 3.9000001 0.27487433
7.7199688 3.9056621 0.27329069
3.5249689 3.9163165 0.27242902
1.74 3.9251423 0.27817756
7.9599686 3.9583256 0.2742922
7.959969 4.1269197 0.27589321
6.6613376e-16 4.2247462 0.27463275
3.6399689 4.312748 0.27343717
3.5249689 4.4147954 0.27515078
6.6613381e-16 4.4414597 0.27820987
7.7199688 4.477313 0.27890736
6.6613381e-16 4.4816003 0.27996254
7.7199688 4.7665825 0.27303308
0.38576603 4.77 0.27963078
0.52103889 4.77 0.27663657
0.65997356 4.7700005 0.27035642
0.94179356 4.77 0.2778067
1.0571748 4.77 0.27350658
1.1393045 4.7700005 0.27461436
1.2658319 4.77 0.27067408
1.855 4.7736554 0.27539751
3.3018365 4.77 0.27722311
3.5475371 4.77 0.2726126
0.23999998 4.8075852 0.2760115
1.9249687 4.9491978 0.27582026
1.1532888 5.0100002 0.2772117
1.7477727 5.0100002 0.2771714
3.5249686 5.1266537 0.27520776
7.959969 5.1386733 0.27250969
7.9599686 5.1432242 0.27895749
7.9599686 5.1649117 0.27213934
7.9599681 5.1755366 0.27725583
0.23999998 5.2030096 0.27073464
7.9599686 5.2153945 0.27706411
3.6999688 5.2685523 0.2794975
7.9599686 5.4174824 0.27967596
3.6999688 5.6564927 0.2712236
3.5249689 5.7332883 0.27705899
6.6613381e-16 5.7612996 0.27304208
3.5249686 5.7906408 0.27259612
6.6613381e-16 5.8072972 0.27077711
0.23999998 5.9171605 0.27042729
7.7199688 5.9140539 0.2765699
3.5249691 5.9276628 0.27316129
7.9599686 5.9813452 0.27311411
3.6999688 6.0567584 0.27886799
7.7199688 6.115746 0.27616793
7.7199688 6.1365852 0.2798211
7.959969 6.3056755 0.27283326
6.6613381e-16 6.3210583 0.27208501
0.23999999 6.3913722 0.27210334
3.6999688 6.4858789 0.27241483
0.23999998 6.5321207 0.27386296
0.24000001 6.55652 0.27577633
6.6613381e-16 6.6100931 0.27750063
7.7199688 6.6222486 0.27465263
6.6613381e-16 6.7735133 0.27443862
6.6613381e-16 6.9317894 0.27639413
7.7199688 7.0248661 0.27765289
6.6613381e-16 7.0663948 0.27789164
6.6613381e-16 7.1274166 0.27533752
3.5249691 7.1271925 0.27396581
7.7199688 7.1261668 0.27841017
7.7199688 7.1418786 0.2733345
6.6613381e-16 7.2273664 0.27726519
6.6613381e-16 7.336297 0.27653483
7.9599686 7.4329705 0.27520326
7.7199688 7.491991 0.27638617
7.9599686 7.5764122 0.27625874
7.7199688 7.6055913 0.27755129
0.75658464 7.665 0.27153695
0.8128075 7.665 0.27030516
1.2633566 7.665 0.27651706
1.5772083 7.665 0.27579695
1.712629 7.6650004 0.27980328
2.4329228 7.665 0.27249685
2.7440722 7.665 0.27881184
2.9818816 7.665 0.27697027
0.23999998 7.7349515 0.27166969
0.27669466 7.7800002 0.27426398
0.88512158 7.7800002 0.27754396
1.1410353 7.7800002 0.27838707
2.2290852 7.7800007 0.27416494
2.2515976 7.7800007 0.27622521
2.3307176 7.7799997 0.27470636
2.3483033 7.7800002 0.27466989
2.4442573 7.7800007 0.27012092
3.4869452 7.7800002 0.27704775
7.7199688 7.8100843 0.27882397
3.6999691 7.9767857 0.27048808
7.959969 8.0229273 0.27416408
3.6999688 8.2968826 0.27944866
6.6613381e-16 8.3344526 0.27137446
3.5249686 8.361372 0.27883938
3.6999688 8.3600483 0.27736792
6.6613381e-16 8.3719788 0.27689832
0.23999999 8.4115667 0.27848414
7.7199688 8.4416418 0.27989355
0.23999998 8.4732409 0.27480361
0.24000001 8.5124788 0.27439255
7.9599686 8.9295626 0.2703062
0.23999999 8.9694605 0.27871209
7.9599686 9.2734537 0.27181396
0.23999999 9.3122826 0.27747661
0.23999998 9.346693 0.2798529
7.7199688 9.5304832 0.27841431
6.6613387e-16 9.6678705 0.27174151
7.7199688 9.7225618 0.27105555
7.9599686 9.7980175 0.27715385
0.23999999 10.058059 0.2744588
3.6999691 10.089671 0.27471954
4.5813775 10.199999 0.27131552
4.8289433 10.199999 0.27451944
1.2422184 10.2 0.27740312
1.3459064 10.2 0.27128905
1.3548254 10.2 0.27787927
1.7591228 10.2 0.27438369
1.8177532 10.200001 0.27956823
2.2785168 10.2 0.27227083
2.5403478 10.2 0.27985865
3.6985698 10.2 0.27916479
3.7152567 10.2 0.2705839
3.9256504 10.2 0.27992105
3.9374986 10.2 0.2745958
5.4594054 10.200001 0.27688429
5.8555145 10.2 0.27707827
7.2829356 10.2 0.27760217
7.3513775 10.2 0.27646625
0.23999998 10.248111 0.27888381
2.5549688 10.268025 0.27716827
2.5549688 10.351984 0.27463055
7.9599686 10.362285 0.2747609
1.1041284 10.439999 0.27959758
2.1882596 10.439999 0.27736694
0.45642936 10.44 0.27125019
0.69640738 10.44 0.27669069
0.8130042 10.44 0.27254176
1.2435178 10.440001 0.2705006
1.3822061 10.44 0.27818334
2.334934 10.44 0.27659249
2.433486 10.44 0.27395263
3.8754253 10.44 0.27175063
3.9001911 10.44 0.27720627
4.134222 10.440001 0.27248651
4.2573886 10.44 0.27807453
5.8878875 10.44 0.27578452
6.1071658 10.44 0.27544802
6.2800817 10.44 0.27042389
7.6738415 10.44 0.27900243
3.6999688 10.515046 0.27245444
3.5249689 10.526437 0.27099806
7.9599686 10.613387 0.27306414
3.5249691 10.893507 0.27479199
0.23999998 10.950848 0.27911258
3.6999688 11.02682 0.27844203
7.9599686 11.11729 0.27421281
7.7199688 11.200718 0.27038825
3.5249686 11.240942 0.27732557
7.7199688 11.260272 0.27296498
3.5249691 11.345989 0.27086464
7.7199688 11.492358 0.27482817
3.5249689 11.56819 0.27340451
7.7199683 11.639211 0.27961659
7.9599686 11.696968 0.27472356
7.9599686 11.917264 0.27533799
3.5249689 11.950174 0.27957472
3.6999688 12.032079 0.27059051
0.23999999 12.05975 0.27359688
3.5249689 12.115425 0.27628094
3.6999688 12.196681 0.27306789
6.6613381e-16 12.213495 0.27841264
3.5249689 12.213101 0.27481586
3.5249691 12.258583 0.27956253
3.5249689 12.265179 0.27172193
7.7199683 12.280846 0.27496257
3.5249686 12.379326 0.27134198
7.9599686 12.418275 0.27506465
6.6613381e-16 12.513237 0.27854148
7.9599686 12.542757 0.27583566
7.7199688 12.553987 0.27936381
6.6613381e-16 12.626148 0.2761187
7.7199688 12.648358 0.27085117
3.6999688 12.682574 0.27168974
7.7199688 12.704288 0.27905822
3.5249689 12.864754 0.27450502
3.6999688 12.898816 0.27107221
3.5249689 13.006666 0.27489704
6.6613381e-16 13.081675 0.2754263
1.5567687 13.199999 0.27210468
3.7256451 13.199999 0.27530658
4.926374 13.199999 0.27053475
4.9413767 13.199999 0.2783592
0.3644354 13.200001 0.27168059
0.61067683 13.2 0.27385551
0.68052393 13.2 0.27295339
0.83609217 13.2 0.27964529
1.1762421 13.2 0.27203202
1.597706 13.2 0.27531409
1.8609591 13.2 0.27930152
2.153388 13.2 0.27718282
2.7461784 13.200001 0.274225
4.4053926 13.2 0.27841884
4.4678507 13.2 0.27250564
5.9962597 13.2 0.27679986
6.8496456 13.2 0.27802545
7.054348 13.2 0.27573192
7.3192024 13.2 0.27262816
2.1538327e-14 13.350752 0.27887365
0.78064877 13.439999 0.27673656
1.1299427 13.439999 0.27335605
4.288496 13.439999 0.27902657
4.451076 13.439999 0.27726641
5.4891534 13.439999 0.27217367
7.269959 13.439999 0.27751115
7.3531122 13.439999 0.27610877
0.47626895 13.44 0.27905497
1.0627394 13.44 0.27933481
1.466805 13.44 0.274102
1.8376254 13.44 0.27753997
1.947577 13.44 0.27272978
3.9752035 13.440001 0.27538159
4.6783943 13.44 0.27160498
4.7869682 13.44 0.2792221
5.1326327 13.440001 0.27962953
5.2637506 13.44 0.27474645
5.4694648 13.44 0.27768779
5.6378183 13.44 0.27974796
5.7701325 13.44 0.27018884
6.2382765 13.44 0.27584174
6.5501981 13.44 0.27780074
6.7556252 13.44 0.27053052
7.8766737 13.44 0.27068895
2.8481984 6.2172489e-15 0.28751755
4.6933804 6.2172489e-15 0.28670746
5.0067139 6.2172489e-15 0.28000426
5.0640182 6.2172489e-15 0.28785777
5.3490152 6.2172489e-15 0.28070337
5.9194326 6.2172489e-15 0.28796974
6.3249326 6.2172489e-15 0.28007779
6.4642801 6.2172489e-15 0.28880724
6.7140102 6.2172489e-15 0.28634965
6.818378 6.2172489e-15 0.28721184
7.6912537 6.2172489e-15 0.28192595
6.6613381e-16 0.15809453 0.28737807
0.23999999 0.195917 0.28191209
0.23999998 0.20833123 0.28591353
3.8007998 0.23999998 0.2892741
7.373724 0.23999998 0.2842913
0.68148971 0.23999999 0.2843172
3.2336533 0.24000001 0.2878519
3.5334842 0.23999999 0.28187385
4.0821648 0.24000001 0.28242248
4.8391948 0.24000001 0.28973886
5.4931107 0.24000001 0.28124255
6.1116228 0.23999999 0.28388628
7.6522188 0.24000001 0.28767574
7.6988001 0.24000001 0.2880857
7.7622681 0.23999999 0.28750908
7.7199688 0.3311128 0.28123537
7.9599686 0.36821789 0.28135249
7.7199688 0.39958817 0.28493223
7.7199688 0.587605 0.28478214
3.5692735 0.67999995 0.28739986
7.7199688 0.72660512 0.28553751
7.9599686 0.74771309 0.28747481
7.7199688 1.1851053 0.28627408
7.9599686 1.2910609 0.28543076
6.6613381e-16 1.3766586 0.2833896
7.9599686 1.4915898 0.2847864
0.23999999 1.6392392 0.28243253
0.23999999 1.7219408 0.28030726
0.23999999 1.7614172 0.28263074
0.23999998 1.8322804 0.28753108
3.6999688 1.983223 0.28683525
0.23999999 2.0531631 0.28724846
7.9599686 2.1036568 0.28054649
3.5249689 2.2588489 0.28267533
3.6999688 2.2767241 0.2817882
7.7199688 2.2800415 0.28558329
6.6613381e-16 2.2926383 0.28943777
3.5249689 2.3041213 0.28698227
6.6613387e-16 2.3250308 0.28011224
3.5249689 2.3529251 0.28710362
3.5249689 2.3785293 0.28008896
7.7199688 2.3703017 0.28375092
3.5249689 2.4707417 0.2825563
7.7199688 2.5140927 0.2866089
3.6999686 2.5364141 0.28983679
7.7199688 2.596251 0.28995159
6.6613381e-16 2.6153913 0.28279582
6.6613381e-16 2.6298077 0.28224921
7.9599686 2.7240908 0.2826398
7.9599686 2.7553704 0.28346273
3.5249689 2.7767515 0.2892442
7.7199688 2.8606184 0.28574747
7.9599686 2.9654379 0.28519189
7.7199683 3.0144701 0.28675368
6.6613381e-16 3.0338984 0.28854352
7.7199688 3.0755177 0.2841416
7.7199688 3.0842226 0.28198835
7.7199688 3.0958993 0.2874153
3.6999688 3.1553917 0.28148806
3.5249689 3.2876539 0.28436419
7.7199688 3.3504558 0.28949687
0.23999999 3.3749743 0.28100538
7.7199688 3.3870718 0.28682512
6.6613381e-16 3.4724774 0.28311467
7.9599686 3.6588888 0.28633985
3.5249689 3.7468684 0.28898978
0.47487634 3.7849998 0.28703564
0.64816815 3.7850003 0.28172565
1.0501715 3.7850001 0.28875217
6.6613381e-16 3.8859591 0.28551382
0.23999999 3.8899758 0.28714889
0.3604852 3.9000003 0.28341216
0.68189913 3.9000001 0.28696823
0.83860278 3.9000001 0.28389657
1.0126042 3.9000001 0.28248119
1.6369531 3.9000001 0.28478464
1.7098557 3.9000003 0.28689542
3.6237636 3.9000001 0.28094712
6.6613381e-16 3.9637158 0.28494483
3.6399689 3.9875791 0.28044057
1.8001757 4.0149999 0.28145495
1.8222672 4.0149999 0.28068009
7.7199688 4.0627489 0.28690085
7.9599686 4.1382647 0.2898432
0.23999998 4.2181807 0.28870326
6.6613381e-16 4.244729 0.28762424
3.6399689 4.2875643 0.28024113
6.6613381e-16 4.4795904 0.28024933
0.79581928 4.7699995 0.28882998
0.26715004 4.77 0.28196052
0.75037527 4.77 0.28995025
0.94878399 4.77 0.28544438
1.0726414 4.77 0.28885114
1.1909199 4.77 0.28416434
1.5927917 4.77 0.28884885
1.646202 4.77 0.28947163
2.9735615 4.77 0.28090125
7.7199688 4.774004 0.28337094
2.8249688 4.7818251 0.28638685
2.8249688 4.8329325 0.2897096
0.24000001 4.9087257 0.28923607
0.23999998 4.9745312 0.28085813
0.44496852 5.0100002 0.2807309
0.5302946 5.0100002 0.28933007
0.79498166 5.0100002 0.2808232
0.82441247 5.0100002 0.28076276
0.96118677 5.0100002 0.28466073
1.2578311 5.0100002 0.28589159
1.2697196 5.0100002 0.28980109
1.3029227 5.0100002 0.28231394
1.562203 5.0100002 0.28075284
3.0863662 5.0100002 0.28452247
3.2804098 5.0100002 0.28283906
3.3552628 5.0100002 0.28362736
3.6398635 5.0100002 0.28740132
3.6409478 5.0100002 0.28013983
3.6535604 5.0100002 0.28747448
3.6999688 5.0137844 0.28092426
7.9599686 5.022337 0.28645164
6.6613381e-16 5.0344334 0.28117907
3.6999688 5.2074394 0.28778866
7.7199688 5.2331057 0.28504771
3.5249689 5.2555261 0.28365281
7.9599686 5.3658094 0.28161135
0.24000001 5.4169192 0.28142515
3.5249689 5.4469757 0.28187183
6.6613381e-16 5.5417972 0.28138191
3.5249686 5.6319728 0.28903121
7.7199688 5.9313407 0.28549856
0.23999998 6.0077395 0.28277689
3.6999688 6.0506306 0.28861117
3.5249689 6.0750904 0.28760669
7.9599686 6.1037507 0.28403655
3.5249691 6.1123381 0.28391337
3.6999691 6.1165543 0.2866047
7.9599686 6.186676 0.28690594
0.23999998 6.2676826 0.28104407
6.6613381e-16 6.3052316 0.28727248
3.5249691 6.3086853 0.28904843
3.5249689 6.3428454 0.28761244
3.6999688 6.4320922 0.28650996
6.6613381e-16 6.5471859 0.28848758
7.9599686 6.6560464 0.2842283
3.5249689 6.6624084 0.28544933
3.6999688 6.8535185 0.28658646
6.6613381e-16 6.9255824 0.28646538
3.5249691 6.929162 0.28531316
7.9599686 6.9283061 0.28070539
7.7199688 6.9653382 0.28882414
7.7199693 6.9913831 0.28159964
7.7199683 7.0991697 0.28406125
3.5249691 7.2188115 0.28992316
7.9599686 7.2735801 0.28494754
3.6999688 7.3032551 0.28838161
0.23999999 7.3534045 0.28663516
3.5249691 7.3512192 0.28404856
6.6613381e-16 7.3687439 0.2846005
3.6999688 7.4533195 0.28176051
7.7199688 7.5006003 0.28262267
3.6999688 7.5274401 0.28256652
7.7199688 7.5741386 0.28383583
3.5249686 7.6091409 0.28510377
0.36832502 7.665 0.28045732
0.40281606 7.665 0.28348434
0.48348296 7.665 0.28013724
0.73921597 7.665 0.28752083
1.4705235 7.6649995 0.28111419
1.5879095 7.665 0.28945476
1.739625 7.665 0.28958437
2.1150062 7.665 0.28240657
2.9425316 7.665 0.28132758
3.1055613 7.665 0.28104803
3.115315 7.665 0.28937337
3.1640124 7.6649995 0.28003499
3.4071169 7.665 0.28150204
0.23999999 7.6859479 0.28785062
0.90716416 7.7800002 0.28343067
0.946679 7.7800002 0.28827104
1.4636588 7.7800007 0.28110424
2.3309143 7.7800007 0.28981143
2.3506193 7.7799997 0.28027716
7.9599686 7.8021231 0.28517753
7.7199688 7.8307972 0.28753835
3.5249689 7.8861551 0.28824496
3.5249686 7.9099874 0.28663847
3.6999691 8.154952 0.2859652
7.9599686 8.2429037 0.28029245
3.5249689 8.3155947 0.28932464
0.23999999 8.4086666 0.28370717
7.7199683 8.6672087 0.28352195
6.6613381e-16 8.7288847 0.28991291
0.23999998 9.2389822 0.28116184
3.6775961 9.3999996 0.28292817
7.9599686 9.4191465 0.28253898
0.24000001 9.5218 0.28860343
6.6613381e-16 9.6687527 0.28638732
7.9599686 9.7225266 0.28308398
7.9599686 9.7830076 0.2883448
3.5249689 9.8523769 0.28166872
3.5249689 9.9475574 0.28772524
6.6613381e-16 9.953722 0.28758663
3.5249691 9.9613934 0.28480086
7.9599686 9.9651337 0.28125775
0.23999999 10.061414 0.28319958
3.5249689 10.133644 0.28756997
7.7199688 10.150167 0.28289157
0.23999998 10.186252 0.28680193
3.6999686 10.185509 0.28042758
7.7199688 10.184856 0.28494006
4.5872006 10.199999 0.28917962
0.98992229 10.2 0.28994891
1.405692 10.2 0.28954419
1.616594 10.2 0.28126627
1.6271582 10.2 0.28902179
1.8609188 10.200001 0.28008348
1.9643271 10.2 0.28642222
2.1108837 10.2 0.28495896
3.6703854 10.2 0.28049663
3.9059405 10.2 0.28176567
3.9289041 10.2 0.28297132
3.9593644 10.2 0.28177512
4.1133995 10.2 0.28594714
5.0991125 10.2 0.28209713
5.4153557 10.2 0.28362617
7.2642655 10.2 0.28849992
7.3639889 10.2 0.28165251
3.4549689 10.364561 0.28416204
6.6613381e-16 10.429461 0.28946632
0.58855665 10.439999 0.28191158
1.6478431 10.439999 0.2851955
1.9790387 10.439999 0.28647935
0.50574583 10.44 0.28324896
0.55692297 10.44 0.28979033
1.0886251 10.44 0.28173614
1.0945123 10.44 0.2800265
1.3869648 10.440001 0.28430313
1.5594049 10.440001 0.28696945
1.8122172 10.44 0.28620943
2.0446112 10.44 0.28903782
2.1371419 10.44 0.28787032
2.4183731 10.44 0.28771955
3.6382647 10.44 0.28651705
3.6832583 10.44 0.28377074
3.6999688 10.446357 0.28300875
3.7386587 10.44 0.28657615
5.1414537 10.44 0.28904659
5.330092 10.44 0.28357038
5.4207373 10.44 0.28656143
5.6429429 10.44 0.28893974
5.858119 10.44 0.28888643
6.9300199 10.44 0.28500974
7.7199688 10.485067 0.28292495
0.24000001 10.589697 0.28542814
7.9599686 10.793048 0.28570455
0.23999999 10.80012 0.28568962
0.24000001 10.87988 0.28016561
7.9599681 10.917414 0.28645715
7.9599686 10.948776 0.2885116
7.7199688 10.973684 0.28738812
7.7199688 11.017843 0.28686386
0.24000001 11.255193 0.28953966
7.7199693 11.369136 0.28727317
3.6999688 11.375431 0.28303847
7.7199688 11.373511 0.28611854
7.959969 11.398816 0.28110451
6.6613381e-16 11.49902 0.28231379
3.5249686 11.581718 0.28371501
6.6613381e-16 11.62345 0.28579664
6.6613381e-16 11.823357 0.28844517
7.7199688 11.852441 0.28551602
6.6613381e-16 11.899697 0.28736243
3.5249686 11.93634 0.28827134
7.959969 11.94788 0.28090641
3.5249689 11.981426 0.2848902
7.9599686 12.037903 0.28880629
0.23999999 12.100331 0.28787324
3.6999688 12.104062 0.28477252
3.6999688 12.124503 0.28934082
0.23999999 12.207398 0.28962916
7.9599686 12.273564 0.28738853
7.7199688 12.292573 0.28652656
6.6613381e-16 12.417807 0.28560162
0.23999999 12.448911 0.28296888
0.23999999 12.460851 0.2851606
7.9599686 12.550027 0.28517258
3.6999688 12.583379 0.28744006
3.6999688 12.660264 0.28028524
7.9599686 12.700915 0.28401184
7.7199693 12.767936 0.28127033
0.24000001 12.851338 0.28929397
3.6999688 12.853591 0.28912219
7.9599686 13.059048 0.28529462
3.5249689 13.171611 0.28844538
0.18369749 13.199999 0.28177568
0.25183243 13.199999 0.28733742
1.3121181 13.199999 0.28407881
2.1197696 13.199999 0.28357747
3.2752905 13.199999 0.28766653
3.789876 13.199999 0.28562993
4.4087925 13.199999 0.28747249
5.5492706 13.199999 0.28661674
7.2996588 13.199999 0.2841821
7.5918379 13.199999 0.28008038
0.054434463 13.2 0.28493607
0.68672985 13.2 0.28776321
0.69545764 13.200001 0.28852528
0.73418599 13.2 0.28930551
0.8524282 13.2 0.28782827
1.6096083 13.2 0.28016889
1.6891443 13.2 0.28149182
2.2715905 13.200001 0.28029042
2.8406222 13.2 0.28885335
2.8609686 13.200001 0.28300375
3.1168277 13.200001 0.28172493
3.2385077 13.2 0.28486168
3.5843551 13.2 0.28193992
3.6466727 13.2 0.28214899
3.9657583 13.200001 0.28332943
4.4034071 13.2 0.28350565
4.9014692 13.2 0.28786379
6.0819917 13.200001 0.28470641
6.1173086 13.2 0.28337112
6.2195339 13.2 0.28946888
6.601387 13.2 0.28610981
6.78128 13.2 0.28729978
7.1286798 13.2 0.28403884
7.8413897 13.2 0.28697169
7.9599686 13.411814 0.28552198
2.4356794 13.439999 0.28226978
3.4157672 13.439999 0.28312117
1.3707993 13.44 0.28346267
1.5909263 13.44 0.28297055
1.6624839 13.44 0.28973335
1.7537305 13.44 0.2891168
1.8750148 13.44 0.28834313
2.372695 13.44 0.28731871
3.4615698 13.44 0.28229541
3.4777989 13.440001 0.28981936
3.8018723 13.440001 0.28177756
4.2343049 13.440001 0.28929567
4.878078 13.44 0.28307259
5.3596134 13.44 0.28118044
6.2371464 13.44 0.28212607
6.5060263 13.44 0.28731993
7.7435265 13.440001 0.28967106
2.8714507 6.2172489e-15 0.2945601
3.2907379 6.2172489e-15 0.29053578
3.464963 6.2172489e-15 0.29231247
3.9453571 6.2172489e-15 0.29166633
4.2515697 6.2172489e-15 0.29480672
4.7479715 6.2172489e-15 0.29208815
4.8078136 6.2172489e-15 0.29296467
5.885427 6.2172489e-15 0.29639408
5.9020085 6.2172489e-15 0.29411924
6.7496929 6.2172489e-15 0.29892972
7.0899262 6.2172489e-15 0.29870209
7.2419405 6.2172489e-15 0.29562312
7.6767139 6.2172489e-15 0.29791042
7.9482417 6.2172489e-15 0.29396978
0.70999992 0.098419927 0.29360592
6.6613381e-16 0.16922815 0.29414797
0.70999998 0.21299684 0.29226694
0.24000001 0.22585727 0.29194295
4.3876691 0.23999998 0.290508
6.0838356 0.23999998 0.29615298
6.2986717 0.23999998 0.29841307
7.6871834 0.23999998 0.29187003
7.8034449 0.23999998 0.29855502
0.24744818 0.23999999 0.29725724
0.37557429 0.24000001 0.29493606
0.50061089 0.24000001 0.29426372
0.57547259 0.23999999 0.29074025
2.9408455 0.23999999 0.29026014
3.1993482 0.23999999 0.29935983
4.7584548 0.24000001 0.29446006
4.8144674 0.24000001 0.29012775
4.8945441 0.23999999 0.2971805
4.9502482 0.23999999 0.29895124
5.4298015 0.23999999 0.29103529
5.520514 0.23999999 0.29094961
5.8912296 0.23999999 0.29719779
6.3827863 0.23999999 0.29453593
6.5045319 0.24000001 0.29220745
7.0534391 0.24000001 0.29766244
7.1640015 0.24000001 0.29614118
7.8404198 0.23999999 0.29441357
7.9068565 0.23999999 0.29941276
3.5249689 0.29392213 0.29655015
3.5249689 0.46960142 0.29292816
7.7199688 0.50283194 0.29185048
7.9599686 0.53256762 0.2988469
7.9599686 0.60045743 0.29531848
7.7199688 1.105273 0.29304689
6.6613381e-16 1.3299353 0.29563111
7.7199688 1.5015671 0.29992849
7.7199688 1.5585673 0.29569799
3.6188202 1.58 0.29060066
3.6355438 1.58 0.29919207
7.7199688 1.670951 0.29467234
0.23999998 1.8893791 0.29315063
7.7199688 1.972152 0.2983554
0.23999999 2.0724368 0.29220858
3.6999691 2.1235676 0.299501
0.24000001 2.2334762 0.29086417
0.23999998 2.2670588 0.29176822
3.5249686 2.4894865 0.29556096
0.23999999 2.5019283 0.29661927
3.5249686 2.5289903 0.29566166
3.5249689 2.6039987 0.29023832
7.7199688 2.6710267 0.29855186
0.23999998 2.7063403 0.29018325
7.9599686 2.7824347 0.29253104
7.9599686 2.7931867 0.29149944
0.23999999 2.9760664 0.29532808
3.6999688 2.9892931 0.29142207
3.6999688 3.0213056 0.29100674
6.6613381e-16 3.0738373 0.29105264
3.6999688 3.076426 0.2988959
0.23999999 3.1120691 0.29979682
3.5249689 3.2270551 0.29353529
7.9599686 3.2467842 0.29773086
7.9599686 3.2828379 0.29343504
6.6613381e-16 3.3013132 0.29475299
3.5249689 3.3569357 0.29618239
6.6613381e-16 3.3608563 0.29388225
7.7199688 3.3908193 0.29181564
0.23999999 3.4574907 0.29127079
3.6999688 3.52651 0.29042938
7.9599686 3.5474091 0.29728413
7.7199688 3.6718249 0.29500899
0.39011103 3.7849998 0.2967355
0.41992176 3.7850001 0.29680169
0.49440491 3.7850001 0.29963011
0.90542144 3.7850001 0.29145816
1.3156884 3.7850001 0.29656386
1.4261311 3.7850003 0.2951059
1.5012444 3.7850003 0.29518217
1.717337 3.7850001 0.29550442
1.7708964 3.7850003 0.29430783
1.8416271 3.7850001 0.29435652
7.7199688 3.8278399 0.29446566
3.5249689 3.8698964 0.29941696
3.6999688 3.867557 0.29934776
0.25235069 3.9000001 0.29657885
0.42254204 3.9000001 0.29586872
0.7302469 3.9000001 0.29133642
0.9459511 3.9000001 0.29856473
1.150034 3.9000001 0.29201341
1.471512 3.9000001 0.29261333
1.74 3.9090996 0.298042
3.6582866 3.9000001 0.29471758
7.7199693 3.9883018 0.29974514
1.855 3.9980938 0.29088485
1.74967 4.0149999 0.29229331
6.6613381e-16 4.1292052 0.29286483
7.9599681 4.1367731 0.29249752
0.24000001 4.1579466 0.29300243
0.24000001 4.2085395 0.29481986
3.5249686 4.2294722 0.29784223
0.23999998 4.2456703 0.29030097
0.24000001 4.2508402 0.29313466
3.5249689 4.3716927 0.29074916
3.5249686 4.4463363 0.29803431
3.5249689 4.6816921 0.29499295
7.9599686 4.7453971 0.29338107
1.5368022 4.7699995 0.29256073
3.1680045 4.7699995 0.29865915
0.39250898 4.77 0.29686242
0.64390737 4.77 0.29273659
0.9823041 4.77 0.29350448
3.0071363 4.77 0.2930401
3.4389496 4.77 0.290528
3.5701525 4.77 0.29851761
1.8260969 4.7849998 0.2951999
3.5249689 4.8112135 0.29421318
3.5249689 4.8660436 0.2907933
2.8249688 4.880291 0.2966359
7.9599686 4.8899312 0.29317203
0.23999999 4.8970084 0.29372448
7.9599686 4.9257259 0.29393265
3.6999688 4.9812589 0.29086569
0.83830792 5.0100002 0.29715884
0.84277993 5.0100002 0.29353759
0.92012876 5.0100002 0.29492331
3.1344514 5.0100002 0.29772642
3.1794219 5.0100002 0.29691666
3.2123315 5.0100002 0.29383254
3.6377659 5.0100002 0.29628539
6.6613381e-16 5.1275797 0.29000711
7.9599686 5.1329303 0.29612187
7.9599686 5.1836758 0.29013991
0.23999999 5.1951394 0.29216146
6.6613381e-16 5.2528586 0.29510322
7.9599686 5.2602415 0.29642323
7.7199688 5.3194957 0.29537347
3.6999688 5.3492522 0.29961646
7.7199688 5.3526597 0.29940605
6.6613381e-16 5.3662963 0.29719776
3.6999688 5.3847466 0.29454878
3.5249689 5.4472957 0.29209477
7.7199688 5.4496651 0.29004431
0.23999998 5.5780067 0.29827547
6.6613381e-16 5.7712493 0.29644406
7.9599686 5.8521695 0.29463699
7.9599686 5.9688549 0.29582256
3.6999688 6.0531559 0.29118556
3.5249686 6.0799236 0.29639438
7.7199688 6.078124 0.29454637
7.959969 6.1072383 0.29160306
7.9599686 6.1174612 0.29454687
3.5249686 6.1319394 0.29519305
3.5249691 6.1486053 0.29859608
0.23999999 6.1613345 0.2901412
0.23999998 6.2244234 0.29526201
7.9599686 6.2562728 0.29747909
3.6999688 6.2638597 0.29370373
7.9599686 6.2893944 0.29562524
3.6999688 6.3163671 0.29264852
3.6999688 6.3663635 0.29830134
7.7199688 6.4985943 0.29021156
0.23999998 6.5738606 0.29731077
3.5249689 6.6317434 0.29547927
7.7199688 6.6986475 0.29279038
0.23999999 6.7249966 0.29791275
7.7199688 6.9328327 0.29805672
3.6999688 7.1698947 0.29307216
6.6613381e-16 7.1757026 0.29368982
7.9599686 7.2919664 0.2976698
3.5249691 7.3340297 0.29696265
3.6999688 7.4301472 0.29205701
6.6613381e-16 7.4619846 0.29302382
3.6999688 7.5156217 0.29090476
7.9599686 7.5381627 0.29240045
7.9599686 7.5911593 0.29032373
3.5249686 7.6163173 0.29529262
3.6999688 7.6237731 0.29950324
0.52771389 7.665 0.2964938
0.57459241 7.665 0.29958567
0.61210614 7.665 0.2964198
0.89487773 7.665 0.29058105
1.0903972 7.665 0.29691333
2.5102344 7.665 0.29240519
2.8701451 7.665 0.29157358
3.1590333 7.665 0.29281551
3.5249689 7.7166891 0.29189843
3.5249689 7.7431335 0.29038081
0.70288879 7.7800007 0.29175928
1.253243 7.7800007 0.29376382
1.4496284 7.7800002 0.29730412
2.0483253 7.7800002 0.29252553
3.3763554 7.7800002 0.299761
3.5249689 7.8153811 0.29789478
7.9599686 7.8599215 0.29514867
7.9599686 8.0092812 0.29689229
0.23999999 8.0119772 0.29443866
3.5249689 8.0451918 0.29812065
3.6999688 8.2013903 0.2946907
3.5249689 8.2556152 0.29796997
7.9599686 8.274272 0.29476354
6.6613381e-16 8.30128 0.29222071
3.6999688 8.329545 0.29971582
3.5249689 8.330698 0.29130453
7.9599686 8.3572474 0.29437143
0.23999998 8.437048 0.29781312
7.9599686 8.4518061 0.29672793
7.7199683 8.4877977 0.295371
3.6668856 8.5 0.29965419
7.9599686 8.5402699 0.29167867
6.6613381e-16 8.6094141 0.29139876
0.23999999 8.6934729 0.29291213
7.7199688 8.7072039 0.298958
6.6613381e-16 8.8019361 0.29405048
0.24000001 8.8639011 0.29436356
7.9599686 9.0543318 0.29696092
7.9599686 9.1509619 0.29828763
3.5340669 9.3999996 0.29326749
6.6613381e-16 9.4314032 0.29768479
7.7199688 9.5208578 0.29422355
7.9599686 9.5998001 0.29482535
7.7199688 9.6790924 0.29987618
0.24000001 9.7679844 0.29521161
3.6999688 9.8725376 0.29499459
6.6613381e-16 9.8938322 0.29239336
3.6999688 10.027789 0.29771289
7.959969 10.08564 0.29602239
3.5249689 10.109525 0.29793832
6.6613381e-16 10.135942 0.29778922
5.0971084 10.199999 0.2935957
5.3638973 10.199999 0.29094708
5.9789462 10.199999 0.29781663
7.2708206 10.199999 0.29314977
0.75524205 10.2 0.29094708
1.2099737 10.2 0.29750222
1.4044352 10.2 0.29336959
1.940816 10.2 0.2909686
2.2941337 10.2 0.29542249
3.6259918 10.2 0.29657009
3.7422142 10.200001 0.29040784
4.7045569 10.2 0.29652524
4.8526778 10.2 0.29455781
4.8881321 10.2 0.29654142
5.4641552 10.2 0.29495007
5.6978068 10.2 0.296523
6.200881 10.2 0.29392987
6.359695 10.2 0.29645646
6.6613381e-16 10.24621 0.29480234
6.6613381e-16 10.321134 0.29072362
3.4549689 10.352503 0.29468805
4.0422301 10.439999 0.29982015
0.59402645 10.44 0.29433128
2.4292011 10.44 0.29966986
3.8431349 10.44 0.2934235
4.0662327 10.44 0.29541343
4.2177424 10.44 0.29586297
5.1536798 10.44 0.29275811
5.5840425 10.440001 0.29782668
5.6424222 10.440001 0.29854819
5.7422047 10.44 0.29751825
5.9456248 10.44 0.29680452
6.6204534 10.44 0.2979629
7.4842343 10.44 0.29710054
7.5151176 10.44 0.29603612
7.6026583 10.44 0.29726237
7.9599686 10.458911 0.29262123
6.6613381e-16 10.493466 0.2960223
6.6613381e-16 10.506079 0.29393893
0.23999999 10.51077 0.29154226
7.9599686 10.51681 0.29340711
7.959969 10.631783 0.29142159
3.6999688 10.729476 0.29771978
0.24000001 10.741022 0.29483286
7.7199683 10.772038 0.29386535
7.9599686 10.832563 0.29399532
7.9599686 10.847287 0.29237673
7.7199688 10.958964 0.29783511
0.23999999 10.991522 0.29882386
3.6999688 11.026999 0.2937831
3.5249686 11.163897 0.29263571
7.7199688 11.181366 0.29075152
7.9599686 11.257887 0.29401919
3.6999688 11.279633 0.29646221
7.7199683 11.337916 0.29276615
3.6999688 11.351503 0.2963841
7.7199683 11.401361 0.2937265
3.5249686 11.453701 0.29274791
3.6999688 11.469986 0.29587257
3.6999688 11.562727 0.29085559
0.23999999 11.627916 0.29723403
3.6999688 11.638721 0.2963095
6.6613381e-16 11.655395 0.29514796
7.7199688 11.658243 0.2934739
7.9599686 11.764864 0.29197747
3.6999688 11.771826 0.29827711
6.6613381e-16 11.819115 0.29726222
0.23999999 11.868492 0.29687354
3.5249689 11.897291 0.29373997
6.6613381e-16 11.973387 0.29265106
7.9599686 12.02945 0.29732305
7.9599686 12.061379 0.29991287
3.5249691 12.138753 0.29341996
6.6613381e-16 12.203335 0.2940515
7.7199688 12.249645 0.2987923
0.23999999 12.29985 0.29365039
3.5249691 12.3622 0.2996076
3.6999688 12.398541 0.29041594
3.6999688 12.647338 0.29133514
0.23999999 12.680212 0.29268584
7.9599686 12.824833 0.29582855
3.5249689 12.857391 0.29813567
6.6613381e-16 12.938683 0.29914555
7.9599686 12.935466 0.29058531
0.24000001 13.081777 0.29207292
3.5249689 13.174027 0.29841411
6.4270325 13.199999 0.29232165
0.84873796 13.2 0.29654974
1.1840622 13.2 0.29484087
1.7076203 13.2 0.29281682
2.10288 13.2 0.29040021
3.0523312 13.2 0.29135847
3.3241179 13.2 0.29386654
3.8844621 13.2 0.2942366
4.2001143 13.200001 0.29715684
4.2299495 13.2 0.29080305
5.0595489 13.2 0.2934989
6.1382885 13.2 0.29706475
6.5744004 13.2 0.29404029
7.0797124 13.2 0.29323104
7.6848555 13.200001 0.29357702
7.9067612 13.200001 0.29414016
2.1538327e-14 13.23852 0.29788423
0.62446034 13.440001 0.29476145
0.6499629 13.44 0.29041451
2.2257786 13.440001 0.2994175
2.7904606 13.440001 0.29809302
3.5033457 13.44 0.29980257
3.7840862 13.44 0.29989466
4.1068702 13.44 0.2940985
4.352458 13.44 0.29443574
4.5301766 13.44 0.29785049
4.7232327 13.44 0.29771504
4.7497673 13.44 0.29856539
5.2264247 13.44 0.29872429
6.911993 13.44 0.29853421
7.1093178 13.44 0.2999157
7.2586508 13.44 0.29352167
7.4235187 13.44 0.29083115
7.5963526 13.44 0.2954767
7.6325932 13.44 0.29090744
7.7927618 13.44 0.2947675
0.076368853 2.7533531e-14 0.30677551
3.0286322 6.2172489e-15 0.30050579
3.44871 6.2172489e-15 0.30573666
4.0208569 6.2172489e-15 0.30942371
4.425858 6.2172489e-15 0.30669206
4.8171172 6.2172489e-15 0.30834991
4.8261919 6.2172489e-15 0.30835399
5.1213002 6.2172489e-15 0.30207217
5.873168 6.2172489e-15 0.30579454
6.0172434 6.2172489e-15 0.3062875
6.5156746 6.2172489e-15 0.30824959
6.8135147 6.2172489e-15 0.3063103
7.4726052 6.2172489e-15 0.30584216
7.6738105 6.2172489e-15 0.30643201
6.6613381e-16 0.035915568 0.30316037
0.24000001 0.041855358 0.30233657
7.9599686 0.078233525 0.30970502
2.79 0.092867814 0.30467832
2.8902628 0.23999998 0.30559704
3.2678356 0.23999998 0.30890462
4.1609988 0.23999998 0.30073807
4.7730255 0.23999998 0.30401236
6.1133838 0.23999998 0.30451909
6.5969133 0.23999998 0.30512381
7.1341825 0.23999998 0.30144393
2.8121343 0.24000001 0.30949843
2.8529556 0.23999999 0.30376488
2.8718195 0.23999999 0.30981642
2.8868268 0.23999999 0.30896467
2.9438877 0.23999999 0.30023205
2.9707901 0.23999999 0.30878696
3.1050467 0.24000001 0.30546644
3.4442189 0.23999999 0.30527383
3.6409578 0.23999999 0.30299774
4.3312955 0.24000001 0.3037484
4.8837895 0.24000001 0.30797738
5.0055833 0.24000001 0.30544344
5.0159898 0.24000001 0.30919963
5.4453225 0.24000001 0.30729038
7.8563304 0.24000001 0.30099308
7.8809814 0.23999999 0.30086821
0.19588265 0.27500001 0.30998829
3.6999688 0.36500439 0.30740929
3.6999686 0.38608459 0.30869788
7.7199688 0.39279425 0.30308944
3.6999688 0.42060703 0.30011198
3.5249689 0.45610705 0.30363363
7.7199688 0.50582755 0.30742171
7.9599686 0.92685902 0.30687222
7.9599686 1.13785 0.30227202
6.6613381e-16 1.3016882 0.3010571
6.6613381e-16 1.5282861 0.30298656
0.23999999 1.5608438 0.30178505
3.6185384 1.58 0.30801928
3.6999688 1.6075144 0.30179062
6.6613381e-16 1.6613917 0.30707324
3.6999688 1.9097815 0.30767497
3.5249689 1.9117976 0.30842412
3.5249689 1.98783 0.30862883
3.5249689 2.1500225 0.30909806
7.9599686 2.18121 0.30622047
6.6613381e-16 2.295212 0.30871114
7.9599686 2.3263044 0.30595464
6.6613381e-16 2.5539165 0.30935133
3.6999688 2.6136365 0.30697986
0.23999999 2.6294107 0.30568904
6.6613387e-16 2.9480405 0.30238429
7.7199688 2.97967 0.30441585
0.23999998 3.0159693 0.30514121
0.23999999 3.0912814 0.30588129
6.6613381e-16 3.1763766 0.30390286
7.7199688 3.2052207 0.30974081
7.9599686 3.2236059 0.3030481
7.9599686 3.2303009 0.30400762
6.6613381e-16 3.2731462 0.3077873
3.5249689 3.373425 0.30236226
0.24000001 3.4092765 0.30003941
7.9599686 3.4724562 0.30690542
6.6613387e-16 3.6373897 0.304634
6.6613387e-16 3.6553631 0.30245173
3.6999688 3.6917074 0.30514964
0.23999999 3.7231674 0.30594248
7.7199688 3.7454977 0.30856735
0.7520287 3.7850001 0.30075982
1.0444435 3.7850001 0.3010743
1.1559532 3.7850001 0.30127823
1.855 3.799279 0.30005732
6.6613381e-16 3.809041 0.30746573
3.5249689 3.8718719 0.30254704
1.74 3.886384 0.3091265
7.7199688 3.8845913 0.30725479
0.96416837 3.9000001 0.30817753
1.0940059 3.8999999 0.30247539
1.3140476 3.9000001 0.30983356
1.5421289 3.9000001 0.30435517
1.6468072 3.9000001 0.30807158
1.855 3.9045982 0.3036066
3.5249689 3.9455836 0.30976468
3.5249686 4.050375 0.30737093
7.959969 4.0742784 0.30545157
6.6613381e-16 4.1549988 0.30013084
7.9599686 4.2674489 0.30749738
3.6399689 4.2765794 0.30569789
7.7199693 4.365869 0.30762184
3.5249689 4.379014 0.30093655
6.6613381e-16 4.40804 0.30686355
6.6613381e-16 4.4525843 0.30200031
3.5249691 4.5485058 0.30055368
0.24000001 4.6302061 0.30985263
6.6613381e-16 4.6545577 0.30089051
7.9599686 4.6724939 0.30763251
0.9096086 4.7699995 0.30763596
3.6399689 4.7613163 0.30564418
0.36149222 4.7700005 0.30777347
1.8934765 4.77 0.3045873
3.0436502 4.77 0.30266383
3.4164217 4.77 0.30492941
0.24000001 4.7858028 0.30513382
2.8249688 4.8258553 0.30613518
7.9599686 4.8597045 0.30832985
2.8249688 4.9448233 0.30854627
1.0364051 5.0100002 0.30791244
1.0972611 5.0100002 0.30804372
2.8310628 5.0100002 0.30731684
7.9599686 5.0436158 0.30949846
6.6613381e-16 5.0751176 0.30753139
7.9599686 5.0811739 0.30197853
6.6613381e-16 5.1451354 0.30558586
0.23999999 5.1825247 0.30626288
3.6999686 5.1879201 0.30746835
7.7199688 5.2577844 0.30155545
3.6999688 5.2739215 0.3094669
7.9599686 5.3452516 0.3031247
3.5249689 5.5271583 0.30386695
3.6999688 5.561584 0.30290818
7.959969 5.6312232 0.30280659
3.6999688 5.6733685 0.30634409
7.9599686 5.6985021 0.3087132
3.6999688 5.702683 0.30625391
3.5249689 5.7498636 0.30807969
7.7199688 5.7408171 0.30295953
7.7199693 5.8596044 0.30050868
7.7199688 5.9153614 0.30495307
7.7199688 5.9258885 0.30012846
7.7199688 5.951839 0.30961338
7.959969 5.9560862 0.30461949
6.6613381e-16 6.0051594 0.30867794
6.6613381e-16 6.04948 0.30966702
3.6999688 6.2627511 0.30666777
0.23999998 6.3119941 0.30557945
7.7199688 6.3116817 0.30156609
6.6613381e-16 6.3403339 0.30158105
6.6613381e-16 6.3530474 0.30495909
0.24000001 6.447473 0.30889857
6.6613381e-16 6.4903622 0.30439943
3.5249689 6.5371084 0.30127305
3.6999688 6.5329828 0.30220163
6.6613381e-16 6.6227865 0.30236194
3.5249691 6.62642 0.30782962
3.5249689 6.7341442 0.30423987
