# .PCD v0.7 - Point Cloud Data file format
VERSION 0.7
FIELDS x y z
SIZE 4 4 4
TYPE F F F
COUNT 1 1 1
WIDTH 1591
HEIGHT 1
VIEWPOINT 0 0 0 1 0 0 0
POINTS 1591
DATA ascii
6.1695242 12.960228 1.5043632
9.121912 13.046939 1.5016137
2.5519123 13.084597 1.504365
0.025467116 13.200228 1.5090348
0.65800005 13.200228 1.5047973
0.74748415 13.200228 1.5029738
0.87866718 13.200228 1.5076933
0.90681535 13.200228 1.5002191
3.1726143 13.200228 1.5051092
3.6199811 13.200228 1.5093721
4.3481693 13.200227 1.5005902
6.4223061 13.200228 1.5088511
6.5095859 13.200228 1.5011646
10.051912 13.289408 1.5066149
0.0019111633 13.588567 1.5082444
9.8119106 13.802711 1.5047673
14.543745 13.840124 1.5029131
10.051912 13.912313 1.5050979
10.051912 14.012455 1.5099113
10.098251 14.050228 1.5004475
14.538472 14.050228 1.5016042
0.0019111633 14.266102 1.5062799
0.0019111633 15.142343 1.5024614
0.0019111633 15.424646 1.5086393
0.0019111634 15.741438 1.5094385
0.0019111633 16.636105 1.5088463
0.0019111633 16.933456 1.5064034
0.24191284 17.001881 1.5092582
0.0019111633 17.75704 1.5096967
0.24191284 18.156031 1.5060959
0.0019111633 18.251448 1.5088758
0.0019111633 18.616249 1.5096915
0.0019111633 19.445477 1.5059156
0.23085321 0.00022697449 1.5125253
0.38501608 0.0052280426 1.5133462
2.7560985 0.0052280426 1.514677
3.719147 0.0052280426 1.5190189
5.5728683 0.0052280426 1.5175036
5.9798932 0.0052280426 1.5105221
6.5014229 0.0052280426 1.5160265
6.666132 0.0052280426 1.5130013
8.5496035 0.0052280426 1.5117879
9.5190334 0.0052280426 1.5152987
9.6920786 0.0052280426 1.5115677
9.9923344 0.0052280426 1.5118126
14.543745 0.0056223818 1.5131449
3.8969116 0.15461877 1.5175866
11.421926 0.20632344 1.5128829
3.8969116 0.22973996 1.5143379
2.6344128 0.23117483 1.5166043
0.31963757 0.24022675 1.5106708
3.1947231 0.24022675 1.5183777
3.2080061 0.24022675 1.5105588
3.2791424 0.24022675 1.5176957
6.0726051 0.24022675 1.511181
6.2238002 0.24022675 1.5138558
6.8679399 0.24022675 1.5140386
8.1977234 0.24022675 1.5161279
9.1668272 0.24022675 1.5172344
9.92803 0.24022675 1.5141485
14.510139 0.24022675 1.5191694
0.0019111633 0.25667238 1.5163131
3.1419125 0.37362736 1.5164988
9.8119106 0.38597369 1.5111665
3.1419125 0.40448016 1.5181557
3.1419125 0.43950588 1.5168654
14.303743 0.43808436 1.5178818
3.1419125 0.44363296 1.5133014
0.0019111633 0.71867955 1.5160707
9.8119106 0.77053273 1.5127
10.051912 0.81259948 1.5117239
10.051912 0.87464237 1.5116189
14.543745 0.87909573 1.5142441
3.2219124 0.91849732 1.5109404
6.2544117 0.91108912 1.5199955
9.8119106 0.94449991 1.5121552
3.2219124 0.98845649 1.5199795
2.9019127 1.1315194 1.5100814
10.051912 1.3372343 1.511312
6.2119122 1.3992792 1.5124209
14.303743 1.6453254 1.513232
14.543745 1.6489422 1.5125304
6.2119122 1.6623986 1.5153196
14.543745 1.7670746 1.5169955
14.303743 1.8472915 1.5113227
6.0969124 1.9569502 1.5148646
6.2119122 2.0241947 1.5165942
14.303743 2.0880868 1.5197182
3.2219124 2.2172468 1.51423
14.303743 2.2175963 1.513082
3.2219124 2.6544743 1.5134133
6.2119122 2.6826062 1.5130564
3.1419125 2.732384 1.5163651
14.303743 2.7646985 1.5166454
3.1419125 2.9506681 1.5162138
0.24191284 3.0237694 1.5101478
6.2119122 3.3304369 1.5167123
3.1419125 3.3684695 1.515957
3.2219124 3.4292085 1.5103135
3.1419125 3.4404492 1.5126113
6.2119122 3.4484615 1.5186909
5.4663653 3.4797802 1.5149486
6.4177713 3.4797802 1.5143934
8.5486012 3.4797804 1.5124832
9.7102995 3.4797802 1.5108314
9.9364986 3.4797802 1.5102402
3.256964 3.59478 1.5182692
3.6944885 3.59478 1.5175924
5.3653746 3.59478 1.5148791
5.656929 3.59478 1.5183445
5.8029203 3.59478 1.5190724
5.9084339 3.59478 1.5142292
6.4649878 3.59478 1.5128689
7.8458505 3.59478 1.5104138
8.9407806 3.59478 1.5153781
0.24191284 3.6413507 1.5124346
2.9019127 3.7302198 1.517678
9.3377724 3.7702274 1.5162947
3.2219124 3.9790733 1.5129054
3.1419125 3.9948332 1.5132989
3.1419125 4.1236939 1.5121088
3.1419125 4.2436872 1.5111715
0.0019111633 4.3043981 1.510855
3.1419125 4.5229192 1.5191472
3.2219124 4.5585995 1.5148504
1.2101153 4.6802273 1.5110712
2.2065513 4.6802273 1.5196826
2.6895318 4.6802273 1.5130788
3.1419125 4.7577186 1.5144831
3.1419125 4.8209467 1.5199987
5.3744488 4.8252277 1.5132513
5.7390051 4.8252277 1.5167704
6.2137518 4.8252277 1.5168339
6.9801016 4.8252277 1.519678
9.2369137 4.8276787 1.5159713
0.05905981 4.880228 1.519829
0.3292554 4.880228 1.5143826
2.353827 4.880228 1.5132921
2.4439466 4.880228 1.5109906
9.2369137 4.8951402 1.5189382
4.9700665 4.9402275 1.5141309
5.555336 4.9402275 1.510041
7.1345749 4.9402275 1.5177122
14.481957 5.500227 1.5140057
6.4669113 5.5958185 1.5185914
6.3519115 5.6513252 1.5126508
6.0019112 5.6752152 1.5103142
6.3519115 5.6816463 1.5174371
6.0543041 5.7402267 1.5163603
4.6869259 5.9089427 1.5152469
4.5719261 5.9370422 1.5189797
0.86410761 5.9952278 1.5170505
0.22023933 6.0802269 1.5110962
1.6609505 6.0802269 1.5115714
4.6869259 6.1278377 1.5197523
3.1419125 6.2711964 1.5101153
3.1419125 6.2818189 1.5191237
14.303743 6.2890997 1.5131873
0.62382019 6.3202267 1.5124228
0.78608811 6.3202267 1.5106133
1.2699642 6.3202267 1.5186542
6.0019112 6.3385448 1.5192158
6.0019112 6.3785744 1.516476
3.1419125 6.3945875 1.5174739
0.46272188 6.4002266 1.5104858
0.8202368 6.4002266 1.5177487
1.1314058 6.4002266 1.5192103
1.3520269 6.4002266 1.5146801
9.2369137 6.41853 1.5133637
2.9019127 6.4594145 1.5197439
14.303743 6.4700155 1.5167401
9.3519115 6.5699782 1.5121797
9.2369146 6.5781536 1.5163485
4.5719261 6.587584 1.5165716
3.912816 6.6402283 1.5142901
4.1723404 6.6402283 1.5181849
4.3797898 6.6402283 1.5198793
4.6968675 6.6402283 1.5160275
4.778326 6.6402283 1.5144268
4.900157 6.6402283 1.5148627
5.1198487 6.6402283 1.5188746
6.0437484 6.6402283 1.5188997
6.0631509 6.6402283 1.5148911
6.9016528 6.6402283 1.5128174
7.1603994 6.6402283 1.5117338
9.6444654 6.6402283 1.5112146
10.242154 6.6402283 1.512084
10.850755 6.6402283 1.5160422
13.22927 6.6402283 1.518976
0.24191284 6.7263994 1.5123203
1.3469276 6.7308207 1.5139019
14.543745 6.7316694 1.5102129
14.303743 6.7556338 1.5168495
14.303743 6.8018618 1.5172528
1.6274483 6.880228 1.5158436
1.7030176 6.880228 1.5146215
3.1838915 6.880228 1.515409
4.3718214 6.880228 1.5169566
4.6157746 6.880228 1.5194752
4.8606324 6.880228 1.5103192
5.4110436 6.880228 1.5182331
5.7426662 6.880228 1.5112362
5.7901969 6.880228 1.5126885
5.9605198 6.880228 1.5116172
5.9811478 6.880228 1.5142436
6.3769269 6.880228 1.5185585
6.8564892 6.880228 1.5164642
7.4444366 6.880228 1.5105225
8.7263298 6.880228 1.5101818
8.9764338 6.880228 1.5192115
10.120064 6.880228 1.5131916
10.193405 6.880228 1.5102497
10.475151 6.880228 1.5191457
11.083059 6.880228 1.5137246
11.124458 6.880228 1.5168902
11.433115 6.880228 1.5169345
11.952814 6.880228 1.5151818
12.006303 6.880228 1.5177699
13.020058 6.880228 1.5137632
13.849274 6.880228 1.5138106
13.873695 6.8802285 1.5135061
1.3469276 6.90592 1.5139909
1.3469276 6.9390297 1.5163879
3.3882108 6.960228 1.5187894
3.5053368 6.960228 1.5132122
3.6686964 6.960228 1.5177624
4.2436609 6.960228 1.5190629
6.0961442 6.960228 1.5154861
7.2433844 6.9602275 1.5165378
7.6252289 6.960228 1.517285
9.6558495 6.960228 1.5126455
10.989944 6.960228 1.5140078
11.018635 6.960228 1.5164586
11.204554 6.960228 1.5197955
0.0019111633 7.049212 1.5102648
0.24191284 7.2000537 1.511957
0.0019111633 7.31037 1.5130665
14.543745 7.3375506 1.5112497
0.24191284 8.1342173 1.5136058
8.3481674 8.1602268 1.5105351
8.9049501 8.1602268 1.5130117
9.0800753 8.1602268 1.5118779
1.3469276 8.2005882 1.5183665
7.1522264 8.2752266 1.5100784
7.4177999 8.2752266 1.5150115
7.7515998 8.2752266 1.5145454
9.2468719 8.2752266 1.5162423
10.01332 8.2752266 1.5108067
0.0019111633 8.3301983 1.5196242
0.33574843 8.4902267 1.5166587
4.1419125 8.6286669 1.5194299
0.24191284 8.7286053 1.5102254
0.69875181 8.7602272 1.5140707
1.3770599 8.7602272 1.5173799
1.5143708 8.7602272 1.5103453
2.1309834 8.7602272 1.5127492
2.5817354 8.7602272 1.5177778
4.1081228 8.7602272 1.5163209
5.9691992 8.7602272 1.5186201
6.5731273 8.7602272 1.5156561
0.38985729 8.875227 1.512573
0.46520442 8.875227 1.5131235
2.2407854 8.875227 1.5142318
2.3142524 8.875227 1.5154941
2.6333263 8.875227 1.5162537
3.4635718 8.875227 1.5182078
0.0019111633 8.9468842 1.5141785
4.1419125 9.0103416 1.5186484
4.2569122 9.01546 1.5167347
10.051912 9.0382452 1.5170093
10.051912 9.1545658 1.5111482
14.303743 9.3200169 1.518378
4.1419125 9.3337412 1.5141649
10.051912 9.4363422 1.5118297
9.8119106 9.4798651 1.5133759
14.303743 9.6424809 1.512112
0.0019111633 9.775136 1.5111369
9.8119106 9.9075451 1.5106847
6.7119122 9.9603186 1.518193
14.303743 9.9603252 1.5160171
5.6419935 9.9752274 1.5158436
0.0019111633 9.9908075 1.5105274
5.7069111 10.059655 1.5182999
6.5969124 10.063433 1.5128015
6.5969124 10.078812 1.5128012
0.0019111633 10.105775 1.517436
5.6969128 10.15356 1.5158365
14.543745 10.17333 1.5132331
0.24191284 10.346865 1.5104281
14.543745 10.537538 1.5117635
6.7119126 10.557575 1.5178341
14.303743 10.555326 1.5195878
5.5257053 10.575227 1.5163472
5.9371061 10.570227 1.514472
6.7119122 10.675991 1.516752
3.4568059 10.690228 1.5155252
3.6043062 10.690228 1.5162306
4.3354902 10.690228 1.5158095
5.2167435 10.690228 1.512779
5.466445 10.690228 1.5191383
0.0019111633 10.758329 1.5169721
14.303743 10.825714 1.515155
10.051912 10.836434 1.5179684
3.2569122 11.045459 1.5103343
3.1419125 11.057579 1.5190643
6.1811285 11.105228 1.5143448
10.051912 11.109706 1.5189394
10.051912 11.412598 1.5176104
10.051912 11.605356 1.5165902
9.8119106 11.932047 1.5157709
0.0019111633 12.108957 1.510777
6.5969124 12.516398 1.5106254
6.7119122 12.68412 1.5102174
0.0019111633 12.747905 1.5109935
6.7119122 12.765127 1.5181108
9.8119106 12.762862 1.5156025
3.1419125 12.801321 1.5136793
3.1419125 12.849762 1.5185347
9.8119106 12.847351 1.5196934
0.82634187 12.960228 1.5137837
1.425226 12.960228 1.5110712
3.3914113 12.960228 1.5127962
3.5092697 12.960228 1.5124629
3.6508992 12.960228 1.5105649
3.8570518 12.960228 1.5171071
4.1897335 12.960228 1.5159005
5.4038258 12.960228 1.5120168
5.8646746 12.960228 1.5132531
6.0213437 12.960228 1.5147851
6.0343814 12.960228 1.5169553
6.1551743 12.960228 1.5117573
6.3224611 12.960228 1.5163952
6.4319477 12.960228 1.5111346
4.628912 13.106989 1.5188364
9.8119106 13.192913 1.5121146
0.15610993 13.200228 1.5101395
3.491863 13.200228 1.5149443
9.4568977 13.200228 1.5154653
10.171695 13.810229 1.5124279
10.217263 13.810228 1.5159903
14.303743 13.881039 1.5167406
14.006918 13.943453 1.5197953
14.543745 13.941373 1.5172468
9.8156099 14.050228 1.5137181
9.9058485 14.050228 1.5137932
0.24191284 14.13625 1.5193971
0.24191284 14.532868 1.5170538
0.0019111633 15.4474 1.5102373
0.0019111633 16.937025 1.5115627
0.24191284 16.943733 1.5194751
0.0019111633 17.026815 1.5168326
0.0019111633 17.072018 1.513813
0.24191284 17.083485 1.5121824
0.24191284 17.159492 1.5181404
0.0019111633 17.548428 1.5147872
0.0019111633 17.631577 1.5178912
0.24191284 18.263235 1.5126071
0.24191284 18.314882 1.5176263
0.24191284 18.415579 1.5166732
0.0019111633 18.689342 1.5126647
0.24191284 18.796221 1.5111567
0.24191284 18.978735 1.5195222
0.24191284 19.51907 1.5181396
0.11667505 19.580229 1.5114086
0.56571263 0.0052280426 1.5241188
2.6401176 0.0052280426 1.5230482
2.8546405 0.0052280426 1.5296715
3.052093 0.0052280426 1.525529
3.3268576 0.0052280426 1.5257273
3.8541842 0.0052280426 1.5245134
5.0657005 0.0052280426 1.5244054
8.8496103 0.0052280426 1.5200884
9.3447266 0.0052280426 1.5242169
11.380346 0.0052280426 1.5260535
7.9519119 0.019014727 1.5231453
4.9469128 0.035250314 1.5255643
0.24191284 0.16938329 1.5200634
3.8969116 0.17034143 1.5275669
2.9824214 0.24022675 1.5213344
3.041193 0.24022675 1.5232164
8.5065718 0.24022675 1.5263147
9.121479 0.24022675 1.5221379
9.635458 0.24022675 1.5241382
14.490738 0.24022675 1.5257883
0.0019111633 0.25050706 1.5204842
3.1419125 0.27153069 1.5216234
14.303743 0.35546529 1.5201104
14.543745 0.3767252 1.5215731
9.8119106 0.43088353 1.5262693
0.24191284 0.46877033 1.5299554
6.0544128 0.49780601 1.5282871
0.24191284 0.50338274 1.5270786
2.9019127 0.80802917 1.5247458
9.8119106 0.84837258 1.5262607
6.0544128 0.8883329 1.523859
10.051912 0.95636368 1.5282896
9.8119106 1.0250881 1.525533
9.8119106 1.0378879 1.5295513
14.303743 1.1079621 1.5295837
14.303743 1.2441382 1.5222956
0.24191284 1.2589461 1.5279489
9.8119106 1.4059033 1.5275151
10.051912 1.5663234 1.5267267
10.051912 1.7361341 1.5244176
14.303743 1.8231611 1.5283339
6.0969124 1.9042816 1.5299437
9.8119106 1.9600235 1.5223768
3.1419125 2.2090521 1.5287541
0.15805896 2.375227 1.5248727
6.0969124 2.400202 1.5243099
14.303743 2.4151771 1.5222262
3.2219124 2.5113356 1.5239282
3.1419125 2.5866895 1.5234692
3.2219124 2.609323 1.529954
9.8119106 2.6951993 1.525988
6.0969124 2.7114716 1.5275718
3.1419125 2.810406 1.5221257
3.2219124 2.833395 1.5233288
2.9019127 2.8434062 1.5260355
2.9019127 2.963762 1.5274838
9.8119106 3.0452313 1.5292504
6.2119122 3.0864139 1.5231735
2.9019127 3.1045799 1.5231032
0.24191284 3.1158588 1.5282079
3.1419125 3.1322699 1.5232786
6.2119122 3.1537588 1.5205003
3.2219124 3.2485094 1.5244753
6.0969124 3.4597907 1.5254836
3.5749488 3.4797802 1.5214484
5.3182507 3.4797802 1.5220455
6.0969124 3.4718237 1.5205756
6.1774473 3.4797802 1.5288994
7.9264584 3.47978 1.5261177
9.0540648 3.4797802 1.5267224
9.6627569 3.4797802 1.5291778
10.051912 3.5435967 1.5233121
3.1655812 3.59478 1.5221924
3.2020745 3.59478 1.5202445
6.2849474 3.59478 1.5286417
6.6900034 3.59478 1.5201386
7.9567857 3.59478 1.5251817
8.3880405 3.59478 1.5239018
9.3041773 3.59478 1.5288091
9.8458347 3.59478 1.522175
3.1419125 3.6013362 1.5223684
3.2219124 3.7154291 1.5200241
0.0019111633 3.8821084 1.5291328
2.9019127 4.1530318 1.5291227
0.24191284 4.4849777 1.5284172
0.26569748 4.6802273 1.5214725
0.44676492 4.6802273 1.5293465
1.3577893 4.6802273 1.5246418
1.5320742 4.6802273 1.5242603
0.0019111633 4.7585459 1.5267327
6.9405942 4.8252277 1.5282404
0.85155916 4.880228 1.524823
1.1707107 4.880228 1.5202863
1.6100224 4.880228 1.5227325
2.7009926 4.880228 1.5272402
5.2478695 4.9402275 1.5266353
5.994607 4.9402275 1.5261714
4.5719261 4.9599342 1.5223355
6.3519115 5.0068917 1.5235962
4.6869259 5.0366154 1.520581
6.4669113 5.5273781 1.5274773
9.3519115 5.5732708 1.5254498
6.4669113 5.6240454 1.5220406
6.1356091 5.7402267 1.5238463
14.303743 5.9359417 1.5252501
6.0019112 6.0387468 1.5268112
0.58145016 6.0802269 1.5216634
0.83390141 6.0802269 1.5238974
1.3043227 6.0802269 1.5276803
1.4193587 6.0802269 1.5219572
3.1419125 6.1611352 1.5241578
9.3519115 6.2346344 1.5245575
3.1419125 6.2552524 1.5213387
0.58827472 6.3202267 1.5213393
0.24191284 6.348629 1.5234449
1.2534301 6.4002266 1.5257578
4.5719261 6.457634 1.5248172
1.3469276 6.4617672 1.5238248
9.3519115 6.5076938 1.5278822
3.1419125 6.5474854 1.5227141
0.0019111633 6.5753412 1.5220616
2.9570136 6.6402283 1.5227995
2.9982791 6.6402283 1.5294942
6.6995258 6.6402283 1.5234948
12.712644 6.6402283 1.5285689
13.370214 6.6402283 1.5245465
14.286201 6.6402283 1.5271391
14.543745 6.684165 1.5283239
14.303743 6.814147 1.5237541
0.24191284 6.8851266 1.5294697
3.3749542 6.8802285 1.522723
4.2722435 6.880228 1.522645
4.293499 6.880228 1.5256307
5.2240191 6.8802285 1.5257176
5.3938231 6.880228 1.5217026
5.505928 6.880228 1.5219972
6.2512288 6.880228 1.5260417
6.4937873 6.880228 1.5208995
6.7144423 6.880228 1.5209413
7.1604419 6.880228 1.5268536
7.1994305 6.880228 1.5230362
8.0561333 6.880228 1.5226752
10.390203 6.880228 1.5297008
11.60821 6.880228 1.5222828
11.663258 6.880228 1.5239469
13.063222 6.880228 1.5284777
13.226872 6.880228 1.5257794
13.872926 6.880228 1.5293159
13.924679 6.880228 1.5222827
14.118076 6.880228 1.5228274
14.263431 6.880228 1.5253652
0.0019111633 6.9051256 1.5288836
1.3715295 6.960228 1.5201163
3.517473 6.960228 1.5265517
4.536624 6.960228 1.526148
4.909071 6.960228 1.5227247
5.3398213 6.960228 1.5221707
6.5883436 6.9602275 1.5206327
8.0421944 6.960228 1.5249288
8.4810104 6.960228 1.5206432
9.3637142 6.960228 1.5228375
9.4523354 6.9602275 1.5249281
10.916496 6.960228 1.5274844
12.280529 6.960228 1.5289683
12.36615 6.960228 1.5241584
12.426661 6.960228 1.5234809
12.579092 6.960228 1.5257642
13.865496 6.960228 1.520636
14.236501 6.960228 1.5246173
1.3469276 7.0365033 1.5227308
14.303743 7.181139 1.526022
1.4619274 7.2123246 1.5203832
0.0019111633 7.7523966 1.5294775
0.0019111633 7.8149762 1.5287657
8.367713 8.1602268 1.5217711
9.0996714 8.1602268 1.5242293
9.7736053 8.1602268 1.5232633
9.9006405 8.1602268 1.5235913
4.2569122 8.208478 1.5270795
7.5473118 8.2752266 1.5262299
7.7726822 8.2752266 1.5288198
8.2209377 8.2752266 1.5294346
8.8538961 8.2752266 1.5255365
4.2569122 8.3793154 1.5261095
5.5719128 8.3957109 1.5245111
6.5969124 8.4009867 1.5281029
0.0019111633 8.4702997 1.52538
0.39191246 8.4922848 1.5265833
4.1419125 8.5480461 1.5250328
5.4569111 8.5473051 1.5240582
5.5719128 8.7316113 1.5265946
1.3947165 8.7602272 1.5244428
3.8248105 8.7602272 1.5262333
5.5347567 8.7602272 1.5292561
6.391499 8.7602272 1.5263007
0.24191284 8.7781982 1.5270312
6.5969124 8.7702522 1.5201527
9.8119106 8.772871 1.5211796
0.24191284 8.8698893 1.5278904
0.48502636 8.875227 1.5231118
0.50545967 8.875227 1.5247068
3.143357 8.875227 1.5258104
6.3739119 8.875227 1.5250542
0.0019111633 8.9136057 1.5229279
14.303743 8.9163914 1.5239482
4.1419125 8.9659147 1.5260062
14.303743 8.9925184 1.5231626
10.051912 9.0362577 1.5292946
14.303743 9.0350113 1.5201728
0.24191284 9.0802794 1.5214121
10.051912 9.0875273 1.5205463
0.24191284 9.285326 1.5289006
14.543745 9.5844688 1.5253677
10.051912 9.6078539 1.5297878
14.543745 9.6700058 1.5215423
14.303743 9.7248096 1.5273042
0.0019111633 9.7575483 1.5264127
14.303743 9.7525368 1.5230756
0.0019111633 9.8315573 1.5248232
6.7119122 9.9190168 1.5203595
5.6969128 10.013602 1.527591
5.6969128 10.035451 1.5277132
5.7069111 10.045301 1.5213073
5.6969128 10.175544 1.5261248
10.051912 10.233301 1.5220807
14.543745 10.23872 1.523811
6.7119122 10.354982 1.5230799
3.1637282 10.575228 1.529448
3.2619715 10.575228 1.5228946
5.1481814 10.575228 1.5274945
6.5969124 10.608313 1.5238326
14.303743 10.622587 1.5218672
14.303742 10.675471 1.5239731
3.4678743 10.690228 1.5261065
5.7664928 10.690228 1.5281126
5.9871354 10.690228 1.5228543
6.5969124 10.715182 1.5267752
0.24191284 10.782563 1.5243001
0.0019111633 10.814965 1.5212362
14.303743 10.921496 1.527909
6.7119122 10.988962 1.5242641
5.7683721 10.990227 1.5269775
6.1139722 10.990227 1.52176
6.2745204 10.990227 1.5288401
6.2988157 10.990227 1.5263085
3.1419125 11.033106 1.5267258
6.7119122 11.177727 1.5210091
9.8119106 11.356598 1.5294708
0.0019111633 11.685925 1.5204825
6.5969124 11.705465 1.527905
3.2569122 11.789528 1.5222075
0.0019111634 11.898794 1.5246208
0.24191284 12.088467 1.5237539
3.2569122 12.139304 1.5210711
0.24191284 12.172089 1.5297486
0.24191284 12.202552 1.5265886
0.0019111633 12.257725 1.5204288
6.5969124 12.425412 1.5242422
9.8119106 12.428093 1.5225223
0.24191284 12.432053 1.5263681
3.1419125 12.555591 1.5257314
3.1419125 12.798678 1.5235763
0.024022635 12.960228 1.5288152
0.8219049 12.960228 1.5263386
1.203701 12.960228 1.522382
3.0126691 12.960228 1.5249364
3.1981831 12.960228 1.5251335
9.1871281 12.960228 1.5274186
9.6441383 12.960228 1.5293535
9.8119106 12.97086 1.5259314
9.8119106 13.184448 1.5264828
1.0080585 13.200228 1.5276681
1.1447041 13.200228 1.5204349
2.571497 13.200228 1.5296503
2.6358294 13.200229 1.5260273
2.8796191 13.200228 1.5266815
2.9334486 13.200228 1.5284063
3.1668563 13.200228 1.5253465
3.1779568 13.200228 1.5260468
4.3860025 13.200228 1.5264412
5.3719034 13.200228 1.5202028
6.8428154 13.200228 1.5214891
9.6351738 13.200228 1.5291212
9.7786407 13.200228 1.5271147
9.8009605 13.200228 1.5246136
10.051912 13.435394 1.5237398
10.051912 13.47308 1.5272939
9.8119106 13.520218 1.5281411
14.459843 13.640228 1.5211525
14.303743 13.783024 1.5287585
10.439482 13.810228 1.5204127
0.24191284 13.848122 1.523397
0.0019111633 13.912713 1.5204656
9.818697 14.050228 1.5245738
9.8490124 14.050228 1.5291398
14.158941 14.050228 1.5216857
14.430229 14.050228 1.5246698
0.24191284 14.503693 1.5200286
0.24191284 14.794772 1.5210507
0.24191284 14.892797 1.5229114
0.0019111633 15.55652 1.5291957
0.0019111633 16.610983 1.5235996
0.0019111633 16.678587 1.5268521
0.0019111633 16.817766 1.5248568
0.0019111633 17.033997 1.5202965
0.24191284 17.600239 1.5207338
0.24191284 18.440992 1.5226554
0.24191284 18.764488 1.5294929
0.0019111633 19.23245 1.5281432
3.0257497 0.0052280426 1.5322738
3.3036346 0.0052280426 1.5374101
5.2233386 0.0052280426 1.5390674
5.6569953 0.0052280426 1.5300548
6.8400469 0.0052280426 1.5374081
8.6780567 0.0052280426 1.53257
8.8093557 0.0052280426 1.5350668
10.669808 0.0052280426 1.5399381
10.811114 0.0052280426 1.5322157
2.6344128 0.18169072 1.5384794
2.977494 0.24022675 1.5371795
5.992506 0.24022675 1.5314522
8.3802614 0.24022675 1.536988
9.4770927 0.24022675 1.5314038
9.5075836 0.24022675 1.5331404
9.7618914 0.24022673 1.5322949
9.8727245 0.24022675 1.5391855
3.1419125 0.26511443 1.5359221
10.051912 0.40450263 1.5309763
0.24191284 0.42080843 1.5361772
3.1419125 0.47515208 1.5383012
14.543745 0.5179075 1.5309405
6.0544128 0.66703337 1.5347354
3.1419125 0.73943502 1.5301981
0.24191284 0.77345502 1.5389363
10.051912 0.95866364 1.5307014
6.0544128 0.96484965 1.5326364
3.1419125 1.1635294 1.5364602
0.24191284 1.3224568 1.5382936
9.8119106 1.5208418 1.5343659
6.2119122 1.6324723 1.5353581
3.2219124 1.6636066 1.53492
3.1419125 1.7872094 1.5335884
3.1419125 1.7932173 1.5362458
2.9019127 1.8607937 1.5364455
3.2219124 1.9005915 1.5385312
3.1419125 2.0134957 1.534166
3.1419125 2.1063025 1.5390732
14.303743 2.1272061 1.5304883
3.1419125 2.2135806 1.531855
9.8119106 2.2119012 1.530056
9.8119106 2.2279058 1.5315239
14.543745 2.3465893 1.537482
0.0019111633 2.3791227 1.5315809
14.543745 2.4770899 1.5380244
3.2219124 2.560123 1.5376574
2.9019127 2.5734198 1.5352631
14.543745 2.687017 1.537926
3.1419125 2.7292929 1.5304604
3.1419125 2.734911 1.5349734
6.0969124 2.8827643 1.5334849
0.0019111633 2.8982513 1.5328937
9.8119106 2.9423132 1.5364157
9.8119106 2.9767902 1.535871
9.8119106 3.074538 1.5336353
3.1419125 3.2245784 1.5303119
3.1419125 3.2710009 1.537233
3.1419125 3.3415976 1.533175
3.2006633 3.4797802 1.537089
3.7070165 3.4797802 1.5370777
5.4994659 3.4797802 1.5365144
8.8389263 3.4797802 1.5320349
9.2096453 3.4797802 1.5377059
9.322649 3.4797802 1.5303888
9.369215 3.4797802 1.5358875
10.024035 3.4797802 1.5356297
10.051912 3.533303 1.5344232
3.8672924 3.59478 1.5376123
4.2596397 3.59478 1.5365576
6.1993866 3.59478 1.5340022
6.4308267 3.59478 1.5327723
6.8825574 3.59478 1.5317093
7.9127278 3.59478 1.5301068
8.013114 3.59478 1.5361305
8.1262245 3.59478 1.5360239
8.4920158 3.59478 1.5359573
9.9237242 3.59478 1.5397989
3.1419125 3.8908114 1.5357654
3.1419125 4.0010195 1.5321939
1.6220551 4.6802273 1.5303826
3.1419125 4.7510171 1.539794
4.7852259 4.8252277 1.5396731
6.0361414 4.8252277 1.5351613
8.2367125 4.8252277 1.5364308
9.0943346 4.8252277 1.5371332
9.200428 4.8252277 1.5315099
4.6869259 4.8327451 1.5332624
0.76537812 4.880228 1.5389885
1.3717371 4.880228 1.5361621
1.5323761 4.880228 1.539144
1.9690455 4.880228 1.536572
2.1227033 4.880228 1.5327168
2.8073385 4.880228 1.5323383
3.1419125 4.9134078 1.5369518
5.4928493 4.9402275 1.5335432
6.2523718 4.9402275 1.532228
6.5948076 4.9402275 1.5378895
6.6031904 4.9402275 1.5341043
7.1569767 4.9402275 1.5383923
0.87718588 4.9652271 1.5312963
4.5719261 4.9833512 1.5316794
9.3519115 5.36203 1.5362289
9.2369137 5.5378428 1.5398238
6.0019112 5.6700206 1.530845
9.2369137 5.8799534 1.5336069
6.3519115 5.9804668 1.5347682
3.1419125 5.9957066 1.533399
3.1419125 6.0007458 1.5349188
9.2369137 6.020503 1.5318842
0.76191139 6.0409527 1.5322229
0.43631279 6.0802269 1.5353944
1.0422871 6.0802269 1.5398631
1.133763 6.0802269 1.538718
1.6620923 6.0802269 1.535894
2.9019127 6.0803108 1.5376666
6.0019112 6.1120477 1.5338405
0.0019111633 6.1273012 1.5383997
1.6669273 6.1416888 1.5321386
4.6869259 6.1568708 1.5376558
3.2219124 6.207859 1.530786
5.8869114 6.2096181 1.5362892
14.543745 6.2125578 1.5376439
0.42470732 6.3202267 1.5386618
0.65895915 6.3202267 1.5360218
1.4269276 6.3704929 1.5334421
1.3928487 6.4002266 1.537376
6.0019112 6.4025235 1.5361254
3.2219124 6.4378233 1.5380065
5.8869114 6.482872 1.5388607
6.4669113 6.4887705 1.5399932
4.6869259 6.5938368 1.5324999
5.8869114 6.6047044 1.5303323
0.0019111633 6.6181002 1.5387596
4.6869259 6.6353283 1.530071
3.9910419 6.6402283 1.5338008
4.3786383 6.6402283 1.5377488
5.2145042 6.6402283 1.5306091
6.0532494 6.6402283 1.5382332
7.7966661 6.6402283 1.5366136
8.0748959 6.6402283 1.5377741
8.2701912 6.6402283 1.5384914
8.9027052 6.6402283 1.5353985
9.5943213 6.6402283 1.5366957
10.190764 6.6402283 1.5379285
12.064166 6.6402283 1.5370117
12.604828 6.6402283 1.531265
12.697165 6.6402283 1.5311325
12.923939 6.6402283 1.5383297
13.357963 6.6402283 1.5360572
13.969174 6.6402283 1.5304455
14.294557 6.6402283 1.5300217
1.4269276 6.7404957 1.5334435
1.7669125 6.7767129 1.5372953
0.0019111633 6.8500786 1.5308603
2.9781218 6.880228 1.5342696
3.134989 6.880228 1.5387939
3.7450757 6.880228 1.5305663
4.025753 6.880228 1.5374153
4.0465851 6.880228 1.5344005
4.1506472 6.880228 1.530393
4.3192039 6.880228 1.5377675
4.3276486 6.880228 1.5340312
5.4348459 6.880228 1.5376576
5.7976007 6.880228 1.5317068
5.9064646 6.8802285 1.5379424
6.3190284 6.880228 1.530807
6.3243723 6.880228 1.5397661
7.0259085 6.880228 1.5311728
7.549973 6.880228 1.5320354
7.5530386 6.880228 1.5377132
7.8743267 6.880228 1.535753
7.8838377 6.880228 1.5356683
8.0528431 6.880228 1.534755
8.1788359 6.880228 1.5385176
8.4381361 6.880228 1.5360348
8.5354443 6.880228 1.5311496
9.6222324 6.880228 1.5360937
9.862113 6.880228 1.5311787
10.166803 6.880228 1.5338998
11.214628 6.880228 1.5349687
11.563891 6.880228 1.5307233
11.666522 6.880228 1.5373839
11.961357 6.880228 1.531033
11.971413 6.880228 1.5353624
12.014477 6.880228 1.5383809
12.49213 6.880228 1.5352859
12.717387 6.880228 1.5330698
12.973025 6.880228 1.5323811
14.108815 6.880228 1.5392421
1.7669125 6.9494972 1.5307988
1.6511611 6.960228 1.5331773
2.9882498 6.960228 1.5376834
3.6362586 6.960228 1.535243
3.9364839 6.960228 1.5350907
4.3576632 6.960228 1.5361472
5.610527 6.960228 1.538522
6.7667923 6.960228 1.5313631
8.0675306 6.960228 1.5344545
11.478811 6.960228 1.5314257
11.741175 6.960228 1.5373917
12.821011 6.960228 1.534853
12.919529 6.960228 1.5346379
13.438817 6.960228 1.5325572
14.164799 6.960228 1.5392723
14.303742 7.4085097 1.5330908
0.0019111633 7.628397 1.5349592
4.1419125 8.1653109 1.5334833
6.6578875 8.1602268 1.5377239
6.9591751 8.1602268 1.5379227
7.2315679 8.1602268 1.5379772
8.2778931 8.1602268 1.5358262
8.6474285 8.1602268 1.5301691
9.0250664 8.1602268 1.5317369
9.1595306 8.1602268 1.5377358
9.7235527 8.1602268 1.5332637
6.5969124 8.1789513 1.5393773
5.5719128 8.2178116 1.534133
0.24191284 8.235075 1.5376596
5.4569111 8.2416372 1.5311568
1.4619274 8.2555532 1.5373745
7.9683638 8.2752266 1.5336043
8.4543657 8.2752266 1.5351397
10.001491 8.2752266 1.5350543
0.0019111633 8.2962875 1.5304803
1.3469276 8.3069344 1.5317003
10.051912 8.4881411 1.5338789
0.39191246 8.5659227 1.536657
0.24191284 8.5912409 1.53803
0.51191139 8.7437267 1.5358182
3.8440862 8.7602272 1.5367978
4.1291933 8.7602272 1.5391641
5.5627403 8.7602272 1.5344183
5.9020987 8.7602272 1.531778
1.7247237 8.875227 1.531265
3.0565348 8.875227 1.5392483
3.6109288 8.875227 1.533958
3.6321046 8.875227 1.5328996
3.9155872 8.875227 1.5307598
4.0978899 8.875227 1.5352418
6.215661 8.875227 1.5356407
6.3529778 8.875227 1.530857
6.390594 8.875227 1.5391864
0.0019111633 9.086174 1.5330582
0.24191284 9.1139517 1.5377598
0.24191284 9.1891136 1.5362525
0.24191284 9.2506485 1.5332572
9.8119106 9.4023886 1.5318972
9.8119106 9.5001173 1.5391052
14.303743 9.6193285 1.5339874
10.051912 9.6221447 1.53857
10.051912 9.9028091 1.531655
6.5969124 9.917366 1.5309122
0.24191284 9.9334631 1.5372171
0.24191284 9.9875078 1.5388334
5.7069111 10.087914 1.530454
10.051912 10.182198 1.5321283
0.0019111633 10.217671 1.536273
0.24191284 10.225803 1.5308907
5.6969128 10.378479 1.5319911
4.2285414 10.475227 1.5386021
14.543745 10.55711 1.5390142
4.2038097 10.575228 1.5353152
5.7334452 10.570227 1.5379972
6.1327577 10.570227 1.5320138
6.5082712 10.570227 1.5384177
6.5403757 10.570227 1.5396658
0.24191284 10.597202 1.5328484
14.303743 10.591349 1.5341189
10.051912 10.634966 1.5354642
3.2738242 10.690228 1.5393913
3.4303839 10.690228 1.5304525
3.6080945 10.690228 1.5319347
3.6170979 10.690228 1.5359311
3.7282324 10.690228 1.5312922
5.422173 10.690228 1.5335567
5.8141708 10.690228 1.5342523
6.3923178 10.690228 1.5313232
3.2569122 10.78699 1.5368528
10.051912 10.847672 1.5340757
9.8119106 10.931886 1.5386927
6.5969124 10.956861 1.5317435
6.7119122 11.032579 1.538227
9.8119106 11.117885 1.5313892
6.7119122 11.133791 1.5308292
10.051912 11.297597 1.5386258
6.7119122 11.303294 1.5322598
9.8119106 11.357425 1.5312295
3.1419125 11.376908 1.5322517
0.0019111633 11.416759 1.5380933
6.7119122 11.425678 1.5311096
0.0019111633 11.578806 1.5301602
6.7119122 11.637007 1.5368749
3.1419125 11.82733 1.5372101
6.7119122 11.869646 1.5394025
3.2569122 12.030458 1.5352005
3.2569122 12.181993 1.5325578
3.1419125 12.298515 1.5370194
10.051912 12.296484 1.5365462
9.8119106 12.337251 1.5322967
3.2569122 12.483543 1.5318531
0.0019111633 12.510322 1.5320044
3.2569122 12.548649 1.5324774
10.051912 12.606533 1.5321286
3.2569122 12.916995 1.5341603
6.5969124 12.914609 1.534955
6.7119122 12.949299 1.5344204
0.2686758 12.960228 1.5390784
0.48224553 12.960228 1.5385737
3.0654709 12.960228 1.537077
3.8155885 12.960228 1.5300194
5.4754763 12.960228 1.5361581
5.9475341 12.960228 1.5342913
10.051912 12.991853 1.5334774
1.5019112 13.028225 1.5355307
9.8119106 13.043913 1.5313001
1.5019112 13.081046 1.5322893
10.051912 13.083653 1.5363157
9.8119106 13.165158 1.5383047
3.3220901 13.200228 1.5334711
3.3844328 13.200228 1.5370148
5.837533 13.200228 1.5310493
7.0864596 13.200228 1.5371827
0.0019111633 13.342561 1.5310522
0.24191284 13.845386 1.5353405
10.051912 13.856077 1.5355452
14.543745 14.024193 1.5397569
14.204489 14.050228 1.5361975
14.396982 14.050228 1.532759
0.0019111633 14.531956 1.5309715
0.24191284 14.795607 1.5331653
0.0019111633 15.297573 1.531854
0.24191284 15.878644 1.5395045
0.24191284 16.04299 1.5392907
0.0019111633 16.752239 1.5317469
0.0019111633 16.98757 1.5301117
0.24191284 17.648392 1.5394154
0.24191284 17.7742 1.5383626
0.24191284 18.99737 1.5357392
0.0019111633 19.084944 1.5361465
0.0019111633 19.287733 1.5387704
0.24191284 19.325253 1.5329356
0.24191284 19.541216 1.5392365
2.8679757 0.0052280426 1.54777
2.9653323 0.0052280426 1.5493224
3.4212661 0.0052280426 1.5482236
5.3952041 0.0052280426 1.5457383
5.4882045 0.0052280426 1.5455307
5.5063157 0.0052280426 1.5472921
5.9341383 0.0052280426 1.5435892
6.0420961 0.0052280426 1.5420414
10.728491 0.0052280426 1.5487465
14.524119 0.0052280426 1.5442629
7.9519119 0.095710084 1.5410876
2.6344128 0.118291 1.5461206
14.441927 0.14994223 1.5480579
2.6344128 0.16211964 1.5418141
14.441927 0.1745619 1.5487059
4.9469128 0.20770499 1.5430778
3.7175827 0.24022675 1.5441545
3.813458 0.24022675 1.5422646
5.0091429 0.24022675 1.5436947
5.8330655 0.24022675 1.5493084
8.6571579 0.24022675 1.5405483
9.9366751 0.24022675 1.5407211
10.607519 0.24022675 1.5408714
11.210699 0.24022675 1.549101
14.459529 0.24022675 1.5497779
3.1419125 0.36274886 1.5466526
3.1419122 0.41584271 1.5461489
3.2219124 0.4824338 1.5442853
3.1419125 0.51833475 1.5437773
3.2219124 0.56585515 1.5401883
3.2219124 0.5753265 1.5438668
0.0019111633 0.66372621 1.5407099
2.9019127 0.67580658 1.5457804
3.1419125 0.68014729 1.5476022
0.0019111633 0.78222513 1.5432485
3.1419125 0.78161597 1.5485452
3.1419125 0.81183499 1.5458944
3.2219124 0.9642241 1.5487942
9.8119106 1.0389619 1.5427951
6.0544128 1.1836039 1.5414315
6.2119122 1.2402967 1.5427287
3.1419125 1.3005303 1.5446723
14.303743 1.5966204 1.5487216
10.051912 1.6599911 1.549744
6.2119122 1.7302673 1.5413529
6.0969124 1.7788594 1.5433391
9.8119106 1.7789841 1.5401672
3.1419125 1.8556299 1.5499107
6.2119122 1.8568838 1.546103
3.1419125 1.9896482 1.5451983
14.543745 2.1945357 1.5413682
9.8119106 2.2640858 1.5444546
14.303743 2.4155254 1.5464227
14.543745 2.4652739 1.5429497
3.1419125 2.4796729 1.542748
0.24191284 2.6204569 1.5486728
6.2119122 2.6507053 1.5406479
2.9019127 2.7373796 1.5474117
6.0969124 2.798224 1.543184
2.9019127 2.8981524 1.5452783
6.0969124 2.9549489 1.5403562
0.24191284 3.0461798 1.5408268
2.9019127 3.1758428 1.5400093
3.2219124 3.1841207 1.5488927
9.8119106 3.2225335 1.543426
6.0969124 3.2812316 1.5427946
0.0019111633 3.317481 1.5439656
3.1982131 3.4797802 1.5472444
3.5265031 3.4797802 1.5456133
4.0461731 3.4797802 1.5416387
4.1178083 3.4797802 1.5406775
7.8913836 3.47978 1.5432206
8.0366201 3.4797802 1.5488448
8.6466541 3.4797802 1.5475842
9.8325377 3.4797802 1.5497028
9.8584948 3.4797802 1.5491396
7.8119125 3.5455909 1.5475574
0.24191284 3.5939543 1.5496948
3.5720053 3.59478 1.5402319
5.4837723 3.59478 1.5463158
9.0434484 3.59478 1.5487709
2.9019127 3.6308665 1.5471226
0.0019111633 3.6765122 1.5435687
3.1419125 3.6774266 1.542333
0.0019111633 3.7657466 1.5417318
0.24191284 3.8703024 1.5420191
0.0019111633 3.979929 1.5434641
0.24191284 4.0558987 1.5479934
3.1419125 4.117404 1.5434712
0.51117885 4.6802273 1.5477703
0.61290616 4.6802273 1.5482032
0.67082971 4.6802273 1.5406333
0.72202861 4.6802273 1.5407944
1.3833692 4.6802273 1.5472343
1.5368484 4.6802273 1.549355
1.5722816 4.6802273 1.5474715
1.6356863 4.6802273 1.5466213
2.9019127 4.687253 1.5432276
2.9019127 4.7683907 1.5434268
2.9019127 4.7722521 1.5421274
9.2369137 4.7968292 1.5431467
3.2219124 4.8171768 1.5414808
6.5548472 4.8252277 1.5473515
6.7354822 4.8252277 1.5488183
7.0164995 4.8252277 1.5417683
8.6399632 4.8252277 1.5419297
8.9964085 4.8252277 1.5487401
0.68217069 4.880228 1.5402542
0.91713929 4.880228 1.5484269
1.1104846 4.880228 1.5496788
1.2791415 4.880228 1.5457652
1.5791836 4.880228 1.5476872
1.6085378 4.880228 1.5439012
2.8705957 4.880228 1.540332
5.927043 4.9402275 1.546366
7.00951 4.9402275 1.542686
8.5073986 4.9402275 1.5400667
8.9184446 4.9402275 1.5408906
9.2369137 5.1899629 1.5457419
6.4669113 5.3361897 1.5457335
9.3519115 5.6107244 1.5494573
6.0256033 5.6202278 1.5418775
6.3519115 5.9187574 1.5490388
0.78057909 6.0802269 1.5425967
6.4669113 6.1118321 1.5487281
0.24191284 6.2011795 1.5444794
3.1419125 6.2165265 1.5486047
2.9019127 6.2937727 1.5468661
0.26737651 6.3202267 1.5460625
0.45151174 6.3202267 1.5470991
1.3298594 6.3202267 1.5447385
2.9019127 6.371954 1.5426257
1.4269276 6.3981671 1.5421747
0.73452765 6.4002266 1.5412931
1.2994175 6.4002266 1.5416592
1.4269276 6.4806457 1.5405442
1.6669273 6.4897623 1.5417734
1.4269276 6.4957552 1.54836
3.1419125 6.5216842 1.5437274
5.8869119 6.6172986 1.5409631
3.0519416 6.6402283 1.5443699
3.2995126 6.6402283 1.5441153
4.061625 6.6402283 1.5453387
4.9013009 6.6402283 1.5440885
5.6660805 6.6402283 1.5403622
5.7456903 6.6402283 1.5425079
7.5683055 6.6402283 1.5411279
7.7719846 6.6402283 1.5474113
8.093751 6.6402283 1.54506
8.8571701 6.6402283 1.5427283
10.284435 6.6402283 1.5427601
11.501045 6.6402283 1.5439183
12.19516 6.6402283 1.5490364
12.84277 6.6402283 1.5446908
13.053323 6.6402283 1.5491476
2.7969112 6.7150431 1.5488234
1.6669273 6.8602066 1.5420212
1.7383146 6.880228 1.5471874
2.8430729 6.880228 1.5432653
3.1272032 6.880228 1.5455056
3.783222 6.880228 1.549567
4.1226735 6.880228 1.5439578
4.1960859 6.880228 1.5408298
5.2423544 6.8802276 1.540794
5.3230076 6.880228 1.543461
5.6888609 6.880228 1.5493102
5.9826708 6.880228 1.5413417
6.1126223 6.880228 1.5486844
6.7824664 6.880228 1.542626
7.0547647 6.880228 1.547683
7.5389786 6.880228 1.5450721
7.7246122 6.880228 1.5497595
8.2541189 6.880228 1.5430723
8.29 6.880228 1.5496973
9.1805754 6.880228 1.5412962
9.2768736 6.880228 1.5475149
9.480278 6.880228 1.5494324
9.7231398 6.880228 1.5452275
11.089308 6.880228 1.5435393
11.209016 6.880228 1.54757
11.57658 6.880228 1.5438516
12.257353 6.880228 1.5419886
12.27624 6.880228 1.5428549
12.890833 6.880228 1.5467449
12.94606 6.880228 1.5496624
13.538195 6.8802276 1.5414656
0.24191284 6.959424 1.5463461
1.6631988 6.960228 1.547847
2.9719443 6.960228 1.5457661
4.1301646 6.960228 1.5479393
4.6262169 6.960228 1.5447185
6.048933 6.960228 1.5419476
6.3236461 6.960228 1.5458373
6.4106407 6.960228 1.5428461
8.0009556 6.960228 1.543195
8.1000481 6.960228 1.5494022
12.898029 6.960228 1.5454506
13.165781 6.960228 1.5436751
13.939028 6.960228 1.5444753
14.216796 6.960228 1.5405223
0.0019111633 7.1331635 1.5403458
14.303743 7.6102266 1.5470803
0.24191284 7.8091803 1.5415564
7.7865186 8.1602268 1.5434728
8.0096245 8.1602268 1.5434629
8.4829273 8.1602268 1.5422671
8.4991264 8.1602268 1.5437257
8.8540478 8.1602268 1.5436162
9.5701962 8.1602268 1.5486865
5.5719128 8.1764526 1.5481476
4.1419125 8.2047796 1.5452414
6.6291046 8.2752266 1.5402048
6.9886127 8.2752266 1.5494179
8.9298534 8.2752266 1.5458148
9.0569658 8.2752266 1.5434129
9.3456192 8.2752266 1.5457733
9.3623209 8.2752266 1.5422244
0.0019111633 8.2871218 1.5441289
0.24191284 8.3545313 1.5420444
4.1419125 8.3875952 1.544389
9.8119106 8.3898001 1.5427443
0.39191246 8.5106831 1.5488856
10.051912 8.5135059 1.5484664
9.8119106 8.5341263 1.5485958
6.7119122 8.5461473 1.5450492
10.051912 8.5463266 1.5454247
5.4569111 8.5684147 1.5448596
5.5719128 8.5954895 1.5409696
5.5719128 8.6334381 1.5498641
6.5969124 8.6474838 1.5403054
0.64082837 8.7602272 1.5454307
2.060436 8.7602272 1.5423729
2.3889756 8.7602272 1.5430683
2.5459495 8.7602272 1.543161
2.7885578 8.7602272 1.5407721
2.7952464 8.7602272 1.5406904
3.5390608 8.7602272 1.5413722
5.5088606 8.7602272 1.5488366
10.051912 8.7846222 1.5425332
0.24191284 8.8033466 1.5488057
6.5969124 8.8059444 1.5447812
10.051912 8.8039789 1.5426215
1.3726778 8.875227 1.5424551
2.3091338 8.875227 1.5486128
2.3238764 8.875227 1.54338
3.1520364 8.875227 1.5441415
5.4854932 8.875227 1.5405926
0.0019111633 8.9603939 1.5464301
4.1419125 9.1056347 1.5430763
9.8119106 9.1648731 1.5437273
0.0019111633 9.1790142 1.5493438
0.0019111633 9.2657032 1.541944
10.051912 9.26124 1.5487882
0.0019111633 9.3003101 1.5418975
4.2569122 9.4756727 1.5424275
0.24191284 9.4940872 1.5423714
6.5969124 9.9755535 1.5485165
6.5969124 9.9807768 1.5455741
6.7119122 10.038334 1.5476652
10.051912 10.060726 1.545944
0.0019111633 10.121952 1.545732
10.051912 10.149097 1.5496185
6.5969124 10.298632 1.5427766
14.303744 10.418991 1.546416
5.6969128 10.488235 1.5470685
0.24191284 10.498652 1.5401175
6.7119122 10.505976 1.5407145
5.5819111 10.528827 1.5427641
5.6969128 10.557197 1.5413176
3.4273851 10.575228 1.5416416
3.8440065 10.575228 1.5403804
6.1803474 10.570227 1.5434095
4.3569126 10.606853 1.5440011
3.2569122 10.628886 1.5400949
3.6256328 10.690228 1.5411477
14.543745 10.83147 1.5417376
5.5819111 10.883024 1.5476017
9.8119106 10.884604 1.549687
14.543745 10.929276 1.5445452
14.38942 10.960228 1.5483791
3.2569122 10.98003 1.5462294
5.9147058 10.990227 1.5458308
6.1519341 10.990227 1.5403624
6.4575777 10.990227 1.5426921
6.4748425 10.990227 1.5414399
5.8869052 11.105228 1.5402387
6.0341692 11.105228 1.5454409
6.1048832 11.105228 1.5443485
6.501153 11.105228 1.5473651
6.7119122 11.127394 1.5447406
10.051912 11.294641 1.549062
0.0019111633 11.336123 1.5466058
6.5969124 11.684863 1.5491797
6.7119122 11.696876 1.5412463
3.1419125 11.768408 1.5479598
0.0019111633 11.872417 1.5499578
3.2569122 11.875399 1.5417043
0.0019111633 11.902573 1.5470506
0.0019111633 11.916646 1.5414802
6.5969124 12.007957 1.5427094
10.051912 12.018529 1.5406792
6.5969124 12.312341 1.5451605
6.5969124 12.395981 1.5422397
6.7119122 12.416434 1.5402097
10.051912 12.444012 1.5469605
6.5969124 12.666703 1.5435975
0.24191284 12.689551 1.5428529
0.0019111633 12.72076 1.5470421
3.2569122 12.722624 1.5401961
6.5969124 12.858636 1.5477386
0.0019111633 12.932585 1.5437405
0.11044479 12.960228 1.5492096
3.153502 12.960228 1.547668
3.2026432 12.960228 1.5457187
6.0514693 12.960228 1.5429862
6.9582272 12.960228 1.5449742
9.7536421 12.960228 1.5432969
9.794508 12.960228 1.5436134
0.88877302 13.200228 1.5495722
1.039629 13.200228 1.5479603
2.8817446 13.200228 1.5471922
6.6523991 13.200228 1.5489345
9.8119106 13.208843 1.5478884
0.24191284 13.400516 1.5430214
14.303743 13.644669 1.5499628
14.303743 13.72072 1.5435604
9.8119106 13.741423 1.545362
10.051912 13.75121 1.5434777
14.236966 13.810228 1.5492622
10.051912 13.89165 1.5495431
14.303743 13.939014 1.5454788
14.006918 14.020438 1.5490497
0.0019111633 14.067364 1.5489835
0.0019111633 14.091775 1.5491564
0.24191284 15.298615 1.5416434
0.24191284 15.74387 1.5402365
0.24191284 15.936708 1.545316
0.24191284 17.098724 1.5478824
0.0019111633 17.269703 1.5410483
0.24191284 17.683422 1.5471264
0.0019111633 17.804829 1.5465791
0.0019111633 18.146734 1.5489097
0.24191284 18.215981 1.5406371
0.24191284 18.324556 1.544697
0.24191284 18.602505 1.5474026
0.0019111633 18.890608 1.5433021
0.0019111633 19.256723 1.5465202
0.083707765 19.580229 1.5403693
2.8886669 0.0052280426 1.5540087
5.1328249 0.0052280426 1.5555404
5.9351091 0.0052280426 1.5590864
6.1652517 0.0052280426 1.5597531
8.0545549 0.0052280426 1.5508559
8.3595829 0.0052280426 1.5521193
8.578167 0.0052280426 1.5549169
6.9019127 0.015552864 1.5561512
14.543745 0.16565582 1.5583482
14.543746 0.21781737 1.559817
0.24191284 0.23157144 1.5527705
2.7659996 0.24022675 1.551085
3.4434786 0.24022675 1.5594537
3.6623528 0.24022675 1.5516961
5.6261992 0.24022675 1.5584351
6.13726 0.24022675 1.5594699
6.1556826 0.24022675 1.5545568
6.2958269 0.24022675 1.5507776
6.6707134 0.24022675 1.5547256
6.7878938 0.24022675 1.5518793
8.596118 0.24022675 1.554244
9.7902393 0.24022675 1.5520899
10.114902 0.24022673 1.5586617
10.908778 0.24022675 1.5505466
9.8119106 0.27643681 1.5502957
2.9019127 0.34260842 1.5549703
6.2544117 0.49530166 1.5529513
3.1419125 0.53315395 1.5529717
10.051912 0.58724862 1.5596337
2.9019127 0.59304905 1.5535338
3.1419125 0.59580266 1.5559187
6.0544128 0.59047079 1.5578325
14.543745 0.65920836 1.5555226
3.1419125 0.74400806 1.5563343
14.543745 0.86820203 1.5581418
6.0544128 0.91419584 1.558074
3.1419125 0.92713135 1.5574284
3.1419125 1.0002425 1.5521214
6.0544128 1.0310293 1.5585488
2.9019127 1.0584086 1.5591848
0.024303731 1.3452282 1.5579281
2.9019127 1.3667468 1.554369
6.0969124 1.4751194 1.5506769
6.2119122 1.523551 1.5587854
6.0969124 1.5471727 1.5514184
10.051912 1.611686 1.5544157
3.1419125 1.7475512 1.5513637
3.1419125 1.85114 1.5524062
6.0969124 1.902234 1.5536319
9.8119106 2.0189643 1.5590765
14.303743 2.0595644 1.5520859
2.9019127 2.0997043 1.5556989
9.8119106 2.2319145 1.5508298
9.8119106 2.3993332 1.5512938
10.051912 2.4904926 1.5583813
3.1419125 2.5266922 1.5513568
10.051912 2.6313193 1.5542681
0.0019111633 2.7273505 1.5534272
9.8119106 2.8502924 1.5547876
6.0969124 2.8825049 1.5575671
6.2119122 2.9649091 1.5568219
0.0019111633 3.0068395 1.5599977
2.9019127 3.0557432 1.5555255
6.2119122 3.3070996 1.5564445
4.2814345 3.4797802 1.5569531
4.3144774 3.4797802 1.5585669
5.4282598 3.4797802 1.5528305
5.5908675 3.4797802 1.550441
6.2064781 3.4797802 1.5576906
8.8493376 3.4797802 1.5507706
9.0331001 3.4797802 1.5589607
10.013749 3.4797802 1.5587552
7.8119121 3.5322599 1.5551369
5.3119125 3.5497384 1.5543001
6.911911 3.5694003 1.5594791
2.9019127 3.5868168 1.5594378
4.0152354 3.5947802 1.554106
5.7139888 3.59478 1.5552249
6.0337925 3.59478 1.5539013
8.1765118 3.59478 1.5542514
8.7935715 3.59478 1.5548917
9.8551321 3.5947797 1.555674
2.9019127 3.6749938 1.550482
9.2369137 3.6771722 1.5576934
3.2219124 4.4375501 1.5523212
0.98203194 4.6802273 1.5546837
2.2410381 4.6802273 1.5510172
4.6195807 4.8252277 1.5591838
4.9259472 4.8252277 1.5509788
5.5558167 4.8252277 1.5579443
6.0621228 4.8252277 1.5574622
0.71374112 4.880228 1.5504593
0.89009821 4.880228 1.5529366
0.92052466 4.880228 1.5595318
1.4392995 4.880228 1.5503644
0.76191139 4.9312401 1.5520759
5.4452238 4.9402275 1.5582308
5.9954767 4.9402275 1.5507876
6.4406242 4.9402275 1.550729
6.6401978 4.9402275 1.5590723
8.2178726 4.9402275 1.55722
8.3053694 4.9402275 1.5525669
8.3407497 4.9402275 1.5520171
8.4293814 4.9402275 1.5506812
8.4316483 4.9402275 1.5538201
8.5700788 4.9402275 1.5587077
8.633522 4.9402275 1.5533504
8.7179775 4.9402275 1.5525595
6.3519115 4.9886084 1.5565509
6.4669113 5.05792 1.5577059
6.3212042 5.6202278 1.5596067
14.543745 5.8768196 1.5513686
14.303743 5.9948683 1.5564462
14.543745 5.992898 1.554384
9.3519115 6.0137243 1.5588461
2.9019127 6.0474305 1.5568054
0.12379669 6.0802269 1.5544407
1.6644719 6.0829697 1.5531676
2.9019127 6.2016535 1.550835
14.303743 6.2585087 1.5571499
14.543745 6.2551904 1.557699
5.8869114 6.2976017 1.5504547
0.88513196 6.3202267 1.5521305
0.99426061 6.3202267 1.5531135
1.3704065 6.3202267 1.5599301
1.3808475 6.3202267 1.5516481
0.33477476 6.4002266 1.5591702
1.0834252 6.4002266 1.5569336
1.179019 6.4002266 1.5513391
2.9019127 6.4097629 1.5594947
14.303743 6.4272561 1.5575429
6.0019112 6.47367 1.5570278
3.6237559 6.6402283 1.5554373
3.9458017 6.6402283 1.5584798
4.0696163 6.6402283 1.5562224
4.8066282 6.6402283 1.5556248
6.2822948 6.6402283 1.5507406
6.4389534 6.6402283 1.557255
7.1404276 6.6402283 1.5559115
7.2502832 6.6402283 1.5545502
7.74265 6.6402283 1.556587
7.8504963 6.6402283 1.5531608
8.704936 6.6402283 1.555384
9.3186007 6.6402283 1.5523351
10.766418 6.6402283 1.5539188
11.809691 6.6402283 1.5518259
11.955356 6.6402283 1.5535318
12.688446 6.6402283 1.5599772
14.008049 6.6402283 1.5578361
2.7969112 6.6688309 1.5510433
14.303743 6.6871948 1.5529149
1.6669273 6.74334 1.5575193
1.7669125 6.7468548 1.5517247
14.303743 6.7779593 1.5563259
1.4841413 6.880228 1.5503262
3.3554258 6.880228 1.5557232
4.0045691 6.880228 1.5505649
4.7179952 6.880228 1.5539205
5.0241551 6.880228 1.5534494
5.0402865 6.880228 1.5534935
6.0875702 6.880228 1.5533928
6.7580185 6.880228 1.5559626
6.8770008 6.880228 1.5527259
7.1849422 6.880228 1.5539256
7.5361905 6.880228 1.5535159
9.4214544 6.880228 1.5534155
9.5651016 6.880228 1.5568217
9.7866621 6.880228 1.5588187
10.042167 6.880228 1.5541043
10.717405 6.880228 1.5523357
10.788813 6.880228 1.5528811
11.379446 6.8802276 1.5586865
11.960085 6.880228 1.5566356
12.938011 6.880228 1.5586927
13.312815 6.880228 1.5579098
1.3469276 6.9681969 1.5546908
5.5994606 6.960228 1.5594556
7.4271355 6.960228 1.5579139
7.7783136 6.960228 1.5560358
7.9784575 6.960228 1.5560899
8.77742 6.960228 1.55257
8.9786367 6.960228 1.552179
9.4154634 6.960228 1.559746
10.725781 6.960228 1.5530761
12.62219 6.960228 1.5557144
13.72209 6.960228 1.5527135
14.124431 6.960228 1.5539129
1.3469276 7.0414467 1.5588446
0.0019111633 7.2113595 1.5528941
14.303743 7.2111964 1.5574428
0.0019111633 7.6660089 1.5581481
0.0019111633 7.7670836 1.555707
9.2363443 8.1602268 1.5535718
9.7198906 8.2752266 1.5557179
10.050638 8.2752266 1.5581527
10.051912 8.3327684 1.5569464
5.5719128 8.3726873 1.5553191
9.8119106 8.450305 1.5560263
5.4569111 8.5491705 1.558804
9.8119106 8.5623274 1.5548053
9.8119106 8.5944443 1.5558678
10.051912 8.7051373 1.5516241
0.90124071 8.7602272 1.5546093
2.3404648 8.7602272 1.5567594
3.0609045 8.7602272 1.5572789
3.7081788 8.7602272 1.5541346
3.7326894 8.7602272 1.5548041
14.303743 8.8139639 1.551669
1.2982782 8.875227 1.5580449
1.8043007 8.875227 1.5573258
2.2955301 8.875227 1.5538189
2.9950652 8.875227 1.5550103
3.274606 8.875227 1.5549321
5.8259211 8.875227 1.5546331
6.0541868 8.875227 1.5586469
6.5969124 8.8986187 1.5563079
14.543745 8.9169121 1.5540742
0.0019111633 8.9625473 1.5537162
6.7119122 8.9687233 1.5564504
4.2569122 9.2094917 1.5528566
14.543745 9.2123966 1.5529765
0.0019111633 9.2364674 1.5591038
14.543745 9.2854614 1.5555978
0.0019111633 9.5302067 1.5570633
6.5969124 9.9105721 1.5590904
6.7119122 9.9613876 1.5552238
6.5959859 9.9752274 1.5586536
0.24191284 10.067482 1.5502532
