# .PCD v0.7 - Point Cloud Data file format
VERSION 0.7
FIELDS x y z
SIZE 4 4 4
TYPE F F F
COUNT 1 1 1
WIDTH 1581
HEIGHT 1
VIEWPOINT 0 0 0 1 0 0 0
POINTS 1581
DATA ascii
6.7099133 11.306787 1.8147794
9.8099117 11.329608 1.813266
6.7099133 11.6029 1.8174293
0.23991394 11.62542 1.8135151
0.23991394 11.655308 1.8155063
6.7099133 12.165146 1.8159508
0.23991394 12.480537 1.8150747
6.5949135 12.48568 1.8165475
-8.7738037e-05 12.515835 1.8140533
6.7099133 12.542653 1.8126372
-8.7738037e-05 12.579783 1.8123834
3.2549133 12.610622 1.8149232
6.7099133 12.839335 1.8107103
0.099888034 12.960228 1.8110896
0.13771951 12.960228 1.816083
0.52642477 12.960228 1.812573
0.78136063 12.960228 1.8167502
0.89428341 12.960228 1.8181404
0.98075831 12.960228 1.8194947
1.496397 12.960228 1.8109096
3.1980255 12.960228 1.8139863
3.4418836 12.960228 1.8198276
3.9261832 12.960228 1.81718
4.0024104 12.960228 1.8129321
6.0812025 12.960228 1.8157254
6.2844067 12.960228 1.819026
6.4554038 12.960228 1.819894
9.3906975 12.960228 1.816638
9.9195614 12.960228 1.8134954
7.0999126 12.981976 1.8128629
9.8099117 12.981151 1.815194
1.4999123 13.083282 1.8112303
2.6155396 13.200228 1.8199353
3.100086 13.200228 1.8175516
3.3538344 13.200228 1.8112826
3.4868104 13.200228 1.8125213
4.5328059 13.200228 1.8117881
6.0441704 13.200228 1.816016
6.2312655 13.200228 1.8174767
6.2461433 13.200228 1.8111975
9.2966003 13.200228 1.814128
9.408474 13.200228 1.815439
9.5110788 13.200228 1.8129959
9.6426506 13.200228 1.811162
9.8099117 13.499574 1.8135335
14.439928 13.65849 1.8135071
10.434744 13.810228 1.812143
14.209205 13.810228 1.8195827
14.67993 13.823394 1.8151796
14.439928 13.857505 1.8118578
14.004919 13.905103 1.8122422
10.049913 13.945146 1.8117192
14.004919 13.947406 1.8134797
14.197937 14.050228 1.8176695
0.24951959 0.0052280426 1.8202745
3.2624202 0.0052280426 1.8279624
3.3972218 0.0052280426 1.8241038
5.3070726 0.0052280426 1.8263347
7.9808149 0.0052280426 1.8251132
8.0701962 0.0052280426 1.8254577
8.6213884 0.0052280426 1.8264221
9.3159113 0.0052280426 1.8245214
9.8186378 0.0052280426 1.8290254
10.003656 0.0052280426 1.8275867
14.609131 0.0052280426 1.8286672
6.8999138 0.024049127 1.829217
0.23991394 0.11776364 1.82855
11.419928 0.12539607 1.8269125
11.419928 0.15311919 1.8205031
2.6486044 0.24022675 1.8291373
3.6089749 0.24022675 1.8242325
6.1444063 0.24022675 1.8254037
6.1580143 0.24022675 1.8269147
6.1902447 0.24022675 1.8277519
6.2361426 0.24022675 1.820366
9.1608543 0.24022675 1.8261971
9.7035885 0.24022675 1.8247021
9.7346392 0.24022675 1.8282242
10.259142 0.24022675 1.8239902
10.049913 0.30300131 1.8208399
6.0524139 0.32528317 1.8204911
3.1399136 0.41771424 1.8249172
10.049913 0.48876697 1.8205609
3.1399136 0.49534667 1.8231416
14.67993 0.7626884 1.8205817
3.1399136 0.79937512 1.8229628
9.8099117 0.88879621 1.8222201
2.8999138 0.90908575 1.8297207
3.1399138 0.91203856 1.8228614
14.67993 0.92559767 1.8288007
3.2199135 0.93133718 1.8234692
6.2524128 0.96816379 1.8252332
6.0524139 1.1713146 1.8263023
6.1631832 1.2402267 1.8245375
3.2199135 1.2704818 1.8211561
14.439928 1.3077314 1.8278034
6.0949135 1.3312529 1.8237191
0.016696613 1.3452282 1.8203031
0.15825792 1.3452282 1.828932
14.439928 1.3401804 1.8284072
3.1399136 1.4050105 1.8270502
9.8099117 1.4038974 1.8294652
9.8099117 1.6504998 1.8239315
10.049913 1.7104199 1.828938
10.049913 1.7707775 1.8204813
2.8999138 1.7996234 1.8274702
3.2199135 1.8122531 1.8290956
3.1399136 1.8382888 1.8236144
3.1399136 1.9399602 1.8219593
3.2199135 2.1747589 1.8221768
10.049913 2.2688632 1.8251221
3.2199135 2.2719598 1.8200722
3.1399136 2.3182259 1.82587
9.8099117 2.3275006 1.8222475
10.049913 2.4253674 1.8224071
14.439928 2.5425155 1.8229432
6.2099133 2.569638 1.8282346
0.23991393 2.6137388 1.8263977
6.2099133 2.6871576 1.8293006
10.049913 2.7032609 1.8219754
9.8099117 3.0025353 1.8234298
2.8999138 3.0956676 1.8228199
3.2199135 3.1945384 1.8297015
3.1399136 3.2472792 1.823911
6.094913 3.2468455 1.8205991
3.2199135 3.3142097 1.8251653
0.23991394 3.4222908 1.8202456
-8.7738037e-05 3.4880276 1.8279871
6.2099133 3.5069423 1.8225684
3.1399136 3.5662203 1.8287171
3.1455343 3.6102276 1.8234552
3.2377303 3.6102276 1.8256071
3.2514129 3.6102276 1.8230262
4.256855 3.6102276 1.8298457
4.3228559 3.6102276 1.8291479
5.8335471 3.6102276 1.8291903
6.7072582 3.6102276 1.8280269
8.7012157 3.6102276 1.8218973
9.1117764 3.6102276 1.8272612
10.049913 3.6199548 1.8245003
6.9099121 3.6669846 1.8230853
0.23991394 3.675921 1.8296525
5.3099136 3.6871171 1.8265388
3.1677446 3.7252274 1.8263904
3.1978145 3.7252274 1.8233089
3.3067369 3.7252274 1.8214386
6.5249538 3.7252274 1.8296621
8.403307 3.7252274 1.8201765
8.8556023 3.7252274 1.8287824
9.2570534 3.7252274 1.8252594
9.3094149 3.7252274 1.8284543
3.1399136 3.8377142 1.8219117
3.1399136 4.1276779 1.8251742
3.2199135 4.2466264 1.8254857
-8.7738037e-05 4.53934 1.8294141
4.8729334 4.6201763 1.8259265
5.1605225 4.6201763 1.8221266
6.8774147 4.6201763 1.8249108
4.5699272 4.6400595 1.8244368
8.1349125 4.6488791 1.8224068
0.63661921 4.6802273 1.8270683
9.2349148 4.6819391 1.8267196
4.684927 4.7234735 1.8250725
4.8745599 4.7351761 1.8260665
5.5746665 4.7351761 1.8230942
5.9480863 4.7351761 1.8235449
5.9766221 4.7351761 1.825844
8.3931932 4.7351761 1.8299742
3.2199135 4.7415962 1.8283579
2.8999138 4.8074427 1.8226596
3.1399136 4.8948517 1.8243811
6.3499126 4.8939896 1.8229852
2.9253855 4.9552269 1.8207995
3.0159431 4.9552269 1.8243222
3.0474041 4.9552269 1.8234742
6.4649124 4.9657483 1.8231431
4.5699272 5.0160646 1.8213744
6.3499126 5.0189657 1.8239142
9.3499126 5.3377934 1.8280777
6.0344424 5.6202278 1.8235166
6.4649124 5.9609427 1.8240299
3.1179039 5.9852276 1.8271141
0.86078578 5.9952278 1.8248996
3.1399136 6.0331712 1.8235579
0.79552078 6.0802269 1.8209815
1.265941 6.0802269 1.8223314
5.9999123 6.099329 1.8254284
1.6649284 6.1101112 1.8260692
-8.7738037e-05 6.2402167 1.8280674
9.2349148 6.2804389 1.8232311
3.1399136 6.290575 1.8276548
0.49757925 6.3202267 1.8221893
0.58440226 6.3202267 1.8298417
1.1669317 6.3202267 1.8261285
1.2703061 6.3202267 1.8206414
5.9999123 6.3441906 1.8282726
6.3499126 6.3494139 1.8241898
14.439928 6.3533411 1.8233286
14.439927 6.3792772 1.8202895
0.76495063 6.4002266 1.8238192
0.8469438 6.4002266 1.8281136
1.2014965 6.4002266 1.8279716
1.2159221 6.4002266 1.8216357
1.6669312 6.4202271 1.8296548
2.9589686 6.4202271 1.8271458
3.3286259 6.4202271 1.827921
4.3656573 6.4202271 1.8260484
5.1130562 6.4202271 1.8285284
5.1962328 6.4202271 1.8238809
5.2632675 6.4202271 1.8298799
7.2236466 6.4202271 1.8270603
7.4214053 6.4202271 1.8263896
7.7548833 6.4202271 1.8223369
8.0937204 6.4202271 1.8256726
8.9181604 6.4202271 1.8255012
10.788975 6.4202271 1.8284194
11.915903 6.4202271 1.8249339
13.003019 6.4202271 1.8222636
13.21285 6.4202271 1.8299272
14.276802 6.4202271 1.8206208
14.67993 6.5287771 1.8236228
1.7649136 6.5320835 1.824749
14.439928 6.5399995 1.8275585
1.6649284 6.5648308 1.8252509
-8.7738037e-05 6.6192398 1.8288047
1.3449287 6.6358147 1.8210199
3.1481631 6.6602268 1.8234802
3.5304632 6.6602268 1.8297763
4.1235538 6.6602268 1.8251306
4.1811213 6.6602263 1.8218775
6.1026411 6.6602268 1.8262244
6.6594052 6.6602268 1.8232152
6.7703166 6.6602268 1.82909
7.8233886 6.6602268 1.8273711
9.1056709 6.6602268 1.825302
9.4708967 6.6602268 1.8243955
10.81028 6.6602268 1.8240499
11.128963 6.6602268 1.8298786
12.221007 6.6602268 1.8232896
12.394161 6.6602268 1.8291161
12.490225 6.6602268 1.8258756
12.56285 6.6602268 1.8204166
13.027485 6.6602268 1.827768
13.552531 6.6602268 1.8210789
13.734897 6.6602268 1.8213525
-8.7738037e-05 6.7879996 1.8290987
-8.7738037e-05 6.8306389 1.8205937
14.67993 6.8459625 1.8210374
14.439928 6.9292917 1.8276005
1.4599285 7.0583735 1.8203473
1.4599285 7.1777048 1.8253067
-8.7738037e-05 7.3265791 1.8285534
-8.7738037e-05 7.6757035 1.822313
0.23991394 7.7590008 1.825624
-8.7738037e-05 7.9563012 1.8297333
4.179811 8.1602268 1.8221817
7.156126 8.1602268 1.8252987
7.8799944 8.1602268 1.8213286
7.9497461 8.1602268 1.8269895
8.8441572 8.1602268 1.8295707
9.781847 8.1602268 1.8292413
4.2549133 8.1825056 1.8258753
10.049913 8.2162876 1.8260224
4.2549133 8.2737684 1.823828
6.9339333 8.2752266 1.8280528
7.0051403 8.2752266 1.829163
8.2425795 8.2752266 1.8278722
8.8423986 8.2752266 1.8254795
9.3721256 8.2752266 1.8212996
9.3899708 8.2752266 1.8295995
9.884346 8.2752266 1.8265038
0.23991394 8.3499374 1.8256938
1.4599285 8.4686594 1.8251885
1.3449287 8.4700413 1.8225238
0.31116039 8.4902267 1.822952
0.43264693 8.4902267 1.8294021
6.5949135 8.5185051 1.8235308
1.3449287 8.5742607 1.8263001
0.32049888 8.6102276 1.8267164
5.5699139 8.6653442 1.8253382
4.1399136 8.7516155 1.8235483
0.50280654 8.7602272 1.8205613
1.0451685 8.7602272 1.8211597
1.581871 8.7602272 1.8235322
1.7846609 8.7602272 1.8235461
3.2812095 8.7602272 1.8205869
3.3874044 8.7602272 1.8217115
5.5764513 8.7602272 1.8279905
14.67993 8.8052959 1.8219752
0.23991394 8.8673038 1.8237743
3.4400277 8.875227 1.8231124
3.79883 8.875227 1.8242102
9.8099117 8.9226847 1.8269858
6.7099133 8.9475641 1.8219634
9.8099117 9.2248869 1.8241191
0.23991394 9.7445908 1.8271356
14.439928 9.8980904 1.8216376
5.5799122 9.9765034 1.8285561
14.439928 9.9946241 1.8262532
0.23991394 10.123815 1.8259643
14.439928 10.337407 1.820142
14.439928 10.440557 1.8209693
4.1399136 10.49766 1.8213364
0.23991394 10.535295 1.8292141
3.2598855 10.575228 1.8281916
3.770014 10.575228 1.8299619
4.0081425 10.575228 1.8250103
4.1633649 10.575228 1.8277471
4.326066 10.575228 1.8233358
5.2065487 10.575228 1.8245087
5.2610474 10.575228 1.8221595
5.3630056 10.575228 1.8224049
3.1399136 10.616369 1.8248683
14.439928 10.662328 1.8278172
3.477875 10.690228 1.8239588
3.5246477 10.690228 1.8280631
5.3564606 10.690228 1.8237656
5.5423565 10.690228 1.8290646
6.0054889 10.690228 1.8291843
6.1597872 10.690228 1.8266926
5.5799122 10.731539 1.8236012
0.23991394 10.75552 1.8257898
14.67993 10.778011 1.8246089
3.2549133 10.931039 1.8227088
6.7099133 10.949967 1.829717
14.549513 10.960228 1.8273971
5.9383826 10.990227 1.8267267
6.0816932 10.990227 1.8224275
3.2549133 11.063557 1.8227031
5.752346 11.105228 1.8261226
3.1399136 11.156575 1.8222393
6.7099133 11.196458 1.8225286
-8.7738037e-05 11.239741 1.8245524
-8.7738037e-05 11.357997 1.8221382
0.23991394 11.367392 1.8290426
3.2549133 11.375248 1.8254085
3.2549133 11.537077 1.8254786
0.23991394 11.581805 1.8232225
3.2549133 11.585095 1.8248801
3.1399136 11.653488 1.8299804
-8.7738037e-05 11.676279 1.8258293
9.8099117 11.723869 1.821939
0.23991394 11.776952 1.8223507
6.7099133 11.776107 1.8200413
0.23991394 11.857348 1.8257284
6.594914 11.941016 1.8275635
6.7099133 12.00629 1.8231244
9.8099117 12.084502 1.8215297
9.8099117 12.27844 1.8265617
10.049913 12.419168 1.8279544
6.5949135 12.468481 1.8229754
0.23991394 12.527625 1.8259648
-8.7738037e-05 12.556667 1.8236172
3.1399136 12.624928 1.8200481
0.23991394 12.687749 1.8260806
-8.7738037e-05 12.707607 1.8213488
0.23991394 12.700634 1.8262687
0.34148851 12.960228 1.8265977
1.4806138 12.960228 1.8203937
5.3674116 12.960228 1.8204619
2.5499134 13.088124 1.8204535
9.8099117 13.155924 1.8277631
3.15558 13.200228 1.8273549
4.4004517 13.200228 1.8288445
5.6093907 13.200228 1.8272316
6.4782629 13.200228 1.8212839
10.049913 13.57085 1.8297732
14.004919 14.032495 1.8218939
10.268826 14.050228 1.8282752
14.424781 14.050228 1.8222797
14.489426 14.050228 1.8269519
2.9686172 0.0052280426 1.83096
3.5003729 0.0052280426 1.8322979
3.6516516 0.0052280426 1.8329945
4.9536762 0.0052280426 1.8334584
5.9674535 0.0052280426 1.837739
6.2827158 0.0052280426 1.8333676
10.134481 0.0052280426 1.8314652
4.9449139 0.083417356 1.8307564
0.23991394 0.095799387 1.8396508
0.62027383 0.24022675 1.8333623
2.7340949 0.24022675 1.8317623
6.0795479 0.24022675 1.8334434
6.2546425 0.24022675 1.8377006
10.057202 0.24022675 1.8309703
10.144319 0.24022675 1.831437
10.228622 0.24022675 1.8370548
10.265886 0.24022675 1.8388255
10.578731 0.24022675 1.8368554
11.115011 0.24022676 1.8306748
14.478729 0.24022675 1.8371575
14.679929 0.33499271 1.8356693
6.0524139 0.40802443 1.8385175
2.8999138 0.50134915 1.8345163
6.0524139 0.62892687 1.8320533
6.2524128 0.64680094 1.8376509
-8.7738037e-05 0.65784484 1.8372698
14.67993 0.67412019 1.8391829
3.2199132 0.91052532 1.8312553
3.2199135 0.94208843 1.8389695
-8.7738037e-05 0.95062149 1.8354946
6.2524128 1.1230439 1.8384242
10.049913 1.2035172 1.8342707
3.1399136 1.4496239 1.838014
3.1399136 1.5963013 1.8363242
6.0949135 1.6865244 1.8310601
3.1399136 1.7086133 1.8303951
9.8099117 1.8136835 1.8359052
3.1399136 1.8615565 1.8352022
3.2199135 1.8870989 1.8387265
9.8099117 1.8969818 1.8378975
10.049913 1.9608064 1.8386129
3.2199135 2.3792646 1.8306558
3.2199135 2.4266829 1.8372432
14.67993 2.4700222 1.8309734
3.2199135 2.4931576 1.839834
14.67993 2.4953415 1.8390697
9.8099117 2.6132586 1.8313307
3.1399136 2.6415458 1.832211
6.2099133 2.6495361 1.8373127
-8.7738037e-05 2.6998377 1.8360845
3.1399136 2.7306836 1.8326281
3.1399133 2.8579538 1.8363075
6.0949135 3.026839 1.8368366
10.049913 3.1144764 1.8311532
6.0949135 3.1517129 1.8387171
0.23991394 3.2293141 1.8359344
9.8099117 3.3353388 1.8316957
9.8099117 3.50372 1.8353137
3.1399136 3.5404031 1.8353512
3.8243637 3.6102276 1.8314307
4.2443466 3.6102276 1.8334718
9.3655128 3.6102278 1.839292
9.8873167 3.6102276 1.8318179
9.9298725 3.6102276 1.8354801
9.9566078 3.6102276 1.8394225
3.8440194 3.7252274 1.832997
4.1788607 3.7252271 1.8354477
5.9678221 3.7252274 1.8380961
6.2633696 3.7252274 1.8358152
6.5473433 3.7252274 1.8369821
6.8019891 3.7252274 1.8361506
8.7328053 3.7252274 1.8353498
9.2385197 3.7252274 1.8375764
9.3675823 3.7252274 1.8309187
9.7334557 3.7252274 1.8391156
9.7932882 3.7252274 1.838304
-8.7738037e-05 3.7643192 1.8370949
3.1399136 3.7713187 1.8385659
-8.7738037e-05 3.8354867 1.8380384
2.8999138 3.869853 1.8378304
2.899914 3.9715483 1.8309003
3.1399136 3.9997296 1.8343955
0.23991394 4.0245409 1.8359346
0.23991396 4.0684628 1.8324353
3.1399136 4.1028805 1.8388579
-8.7738037e-05 4.1325026 1.830079
0.23991394 4.203516 1.8329762
2.8999138 4.3111277 1.831669
2.8999135 4.4281535 1.8300877
3.2199135 4.4333735 1.8350662
0.23991394 4.5598836 1.8364459
4.9144073 4.6201763 1.835723
5.6597433 4.6201763 1.8313992
6.8990541 4.6201763 1.8332975
8.181097 4.6201763 1.8309294
8.2580528 4.6201763 1.8364639
9.0382128 4.6201763 1.8339814
0.50350755 4.6802273 1.8323196
1.5914464 4.6802273 1.8310521
1.9211128 4.6802273 1.8372188
2.0235221 4.6802273 1.8330921
2.1657634 4.6802273 1.8346059
2.6598043 4.6802273 1.8306905
2.7852764 4.6802273 1.8327025
4.7865238 4.7351761 1.8329804
5.7452326 4.7351761 1.8364713
5.8102894 4.7351761 1.8381042
8.606945 4.7351761 1.8393065
8.6893215 4.7351761 1.8308332
6.4649124 4.7689991 1.8383024
0.81867218 4.880228 1.8328581
2.5930083 4.880228 1.8376491
2.7933879 4.880228 1.8384606
6.4649119 4.9387112 1.8358142
4.5699272 4.9416943 1.8319224
0.85188842 4.9652271 1.8311598
6.3499126 4.9690928 1.8369524
9.2349148 4.9863987 1.8351029
9.3499126 5.1145406 1.8351462
6.4649124 5.2290177 1.832424
6.4649124 5.2731824 1.8349669
9.3499126 5.4375491 1.8349646
14.595095 5.500227 1.8359791
9.2349148 5.5354004 1.8394223
9.2349148 5.6219273 1.8370664
6.3499126 5.712213 1.8316383
5.9999123 5.7251821 1.8335966
14.67993 5.8105283 1.83506
4.5699272 5.8699512 1.8396143
2.9679105 5.9852276 1.8373593
3.1399133 6.001555 1.8307905
9.2349148 6.0135946 1.8346046
2.8999138 6.0379243 1.8319547
0.54115683 6.0802269 1.8369472
3.2199135 6.0802412 1.8302567
9.2349148 6.088407 1.8326197
3.2199135 6.0935602 1.8329194
4.684927 6.1113586 1.830744
1.4249287 6.195713 1.8323942
3.1399136 6.2000566 1.8358421
2.8999138 6.2320538 1.833245
0.37731206 6.3202267 1.8386728
2.8999138 6.3215561 1.8331969
5.8849125 6.321784 1.8314803
9.3499126 6.3338351 1.8347389
14.67993 6.3554001 1.8309091
1.3748134 6.4002266 1.8377023
3.062252 6.4202271 1.8330573
3.1169984 6.4202271 1.8362293
4.6492381 6.4202271 1.8363993
4.6751542 6.4202271 1.8380216
6.0618143 6.4202271 1.834193
6.1068134 6.4202271 1.830112
6.4060459 6.4202271 1.8319564
7.5455317 6.4202271 1.8395579
9.3584375 6.4202271 1.8340526
10.047701 6.4202271 1.8340605
10.916068 6.4202266 1.8384066
11.068932 6.4202271 1.8342643
11.39817 6.4202271 1.8310752
12.107748 6.4202271 1.8379432
1.4249287 6.4740238 1.8353291
1.4249287 6.5261903 1.8372116
1.6649284 6.5219331 1.8345367
14.439928 6.5213065 1.8323343
1.4249287 6.560853 1.838469
3.2534189 6.6602268 1.8305228
3.3482993 6.6602268 1.8348745
5.0980258 6.6602268 1.8335601
5.8211632 6.6602268 1.833586
5.8764725 6.6602268 1.8356217
5.8800039 6.6602268 1.8359897
5.9897356 6.6602268 1.8366791
6.6875353 6.6602268 1.8373232
8.9888363 6.6602268 1.834985
12.120727 6.6602268 1.8321327
13.448867 6.6602268 1.8324805
14.67993 6.7309713 1.8344285
0.23991394 6.8903856 1.8337793
14.67993 6.9534044 1.8355596
-8.7738037e-05 6.9795656 1.8376399
14.439928 7.0011854 1.8397937
14.679931 7.1013632 1.8340513
-8.7738037e-05 7.2266741 1.8324019
-8.7738037e-05 7.3210974 1.8315651
0.23991394 7.3283901 1.8301525
-8.7738037e-05 7.5430355 1.8397216
14.67993 7.5703654 1.8320129
14.677171 7.6502266 1.8352443
0.23991394 7.8223104 1.8390362
9.1903639 8.1602268 1.8318946
6.7099133 8.2779541 1.8313913
7.9543829 8.2752266 1.8321228
8.6114836 8.2752266 1.8377836
8.7971106 8.2752266 1.8383104
6.7099128 8.3504124 1.830744
0.30421436 8.4902267 1.8354912
0.38991356 8.4953794 1.8386879
9.8099117 8.6797714 1.8364341
14.598395 8.7002277 1.8353144
4.1399136 8.7109556 1.8374077
0.24091211 8.7602272 1.8397442
1.9623793 8.7602272 1.8355064
2.1146998 8.7602272 1.8377404
3.2551341 8.7602272 1.8332064
5.5192261 8.7602272 1.8320026
5.6398692 8.7602272 1.8329953
5.8898573 8.7602272 1.8326722
6.450995 8.7602272 1.8365192
6.5036793 8.7602272 1.8357031
5.4549122 8.8021803 1.8332534
2.4716222 8.875227 1.830951
2.5578043 8.875227 1.8336391
2.785157 8.875227 1.8390182
5.530385 8.875227 1.838798
6.0413828 8.875227 1.8315637
6.0924616 8.875227 1.83034
6.2060976 8.875227 1.8372831
10.049913 8.9002352 1.8380417
9.8099117 9.1222296 1.8362635
10.049913 9.2196903 1.8313373
14.67993 9.2934952 1.8389376
9.8099117 9.3752546 1.8358026
9.8099117 9.4341736 1.8356204
10.049913 9.8214169 1.8389118
6.6977463 9.875227 1.8356384
-8.7738037e-05 9.9858189 1.8366039
9.8099117 10.034744 1.8328398
10.049913 10.235056 1.8376439
14.439928 10.245964 1.8335474
5.6949139 10.264596 1.8346972
5.6949139 10.278248 1.8306475
5.6949139 10.312069 1.8381397
-8.7738037e-05 10.321646 1.8386453
6.7099133 10.409798 1.8334436
4.1890516 10.475227 1.8323623
4.2549133 10.491765 1.8397911
5.5799122 10.498435 1.8392837
5.6949139 10.522054 1.8301359
6.5949135 10.568623 1.8351564
3.4642251 10.575228 1.8370442
5.6949139 10.576559 1.8361306
6.0340586 10.570227 1.8384557
14.439928 10.581413 1.8340886
0.23991394 10.624664 1.8332121
3.6127696 10.690228 1.8328203
5.9146733 10.690228 1.8356931
6.7099133 10.712511 1.834069
0.23991394 10.750942 1.8347054
14.439928 10.780335 1.8340223
14.67993 10.875313 1.8338108
5.9890099 10.990227 1.8310746
6.13867 11.105228 1.8336817
-8.7738037e-05 11.200507 1.8381075
3.2549133 11.206688 1.8381772
0.23991394 11.229924 1.8381922
6.5949135 11.560715 1.8397331
6.7099133 11.725547 1.8344471
6.5949135 11.730771 1.8328787
6.7099133 11.785214 1.8323553
3.1399136 11.945131 1.8365011
0.23991394 11.965803 1.8373756
3.2549133 12.136972 1.8342354
0.23991394 12.462654 1.8376601
3.2549133 12.479023 1.8321145
10.049913 12.524579 1.8324443
0.23991394 12.767852 1.8393145
3.1399136 12.770415 1.8366352
3.2549133 12.811488 1.8326948
6.7099133 12.876104 1.8392347
0.23991394 12.958396 1.8322387
0.56704789 12.960228 1.8335402
0.74765718 12.960228 1.8371428
0.83095324 12.960228 1.8310728
9.5184574 12.960228 1.8357887
9.9303799 12.960228 1.8313352
5.3469124 12.971021 1.8355055
4.6269131 13.03792 1.8380699
5.3469124 13.165192 1.8368887
9.8099117 13.173385 1.8329546
-8.7738037e-05 13.186772 1.8384707
1.4040184 13.200228 1.8397739
1.4252329 13.200228 1.8397692
2.795893 13.200228 1.837937
2.8933101 13.200228 1.8367698
5.3726425 13.200228 1.832744
5.6001678 13.200228 1.8306069
5.6944413 13.200228 1.8354499
6.1024275 13.200228 1.8397661
9.5939388 13.200228 1.8382595
14.67993 13.735609 1.836462
14.06556 13.810228 1.8349445
10.049913 13.847323 1.8373523
10.484919 13.851788 1.8369868
9.9167671 14.050228 1.8356824
2.8695598 0.0052280426 1.8461826
3.2968352 0.0052280426 1.8480237
5.5122519 0.0052280426 1.8493718
5.9872127 0.0052280426 1.843132
6.0589905 0.0052280426 1.8476557
6.4730291 0.0052280426 1.8439856
8.1929951 0.0052280426 1.8465413
8.4703407 0.0052280426 1.8483442
8.8036156 0.0052280426 1.8491074
9.3725357 0.0052280426 1.8427452
0.23991394 0.054955065 1.8463149
14.439928 0.081837058 1.8449697
2.6324139 0.21730599 1.8493876
14.679929 0.21198452 1.8475437
4.9449139 0.23448414 1.8426617
14.439928 0.23128042 1.8470156
0.5164845 0.24022675 1.8436691
3.2199135 0.24461149 1.849903
3.8926411 0.24022673 1.8402182
5.0898032 0.24022675 1.8400285
5.7611785 0.24022675 1.8419533
6.2015314 0.24022675 1.8404676
6.2179136 0.24022675 1.8411421
6.7562017 0.24022675 1.8499076
6.8850722 0.24022675 1.8430732
8.2935448 0.24022675 1.8444074
9.1852741 0.24022675 1.846014
9.4985552 0.24022675 1.8474259
3.1399136 0.47368544 1.8408531
0.23991394 0.6211282 1.8479749
3.2199135 0.63855624 1.8457979
10.049913 0.64297414 1.8422518
3.1399136 0.67940432 1.8455611
6.0524139 0.694134 1.8489403
6.0524139 0.73275405 1.8474842
10.049913 0.99190402 1.8494837
0.092511296 1.000227 1.8418485
10.049913 1.0687715 1.8497999
14.439928 1.1370142 1.843418
6.0524139 1.1472354 1.8470824
2.8999138 1.1897901 1.8414686
14.439928 1.2293931 1.8402718
0.22534898 1.2402267 1.8455421
10.049913 1.2618197 1.8411456
0.23991394 1.3170855 1.8410891
0.23991394 1.3232695 1.8457252
0.054349001 1.3452282 1.8408718
3.1399136 1.6066444 1.8425082
2.8999138 1.6546811 1.8470503
14.439928 1.7233517 1.8454875
3.1399136 1.771893 1.8427367
3.1399136 1.8445717 1.8458759
2.8999138 1.9133706 1.8490175
3.1399136 1.921627 1.8471532
10.049913 1.9429202 1.8485422
2.8999138 1.9980245 1.8406975
3.1399136 2.1010182 1.8472772
3.2199135 2.2854233 1.8437777
0.23991394 2.4048162 1.846537
14.439928 2.4203467 1.8420262
9.8099117 2.4747863 1.8409333
14.67993 2.5278049 1.8444953
0.23991394 2.5322578 1.8426386
10.049913 2.531687 1.8406271
3.2199135 2.5861797 1.8474877
14.439928 2.5880044 1.8454342
3.1399136 2.5911016 1.8437884
14.67993 2.5968492 1.8423401
0.23991394 2.6472945 1.8400702
14.563553 2.8202267 1.8497359
6.0949135 2.886539 1.8428645
6.0949135 3.1215181 1.8417237
10.049913 3.1259005 1.8491508
0.23991394 3.1595483 1.8489799
3.2199135 3.1678796 1.8493552
2.8999138 3.204669 1.8466712
3.1399136 3.3933322 1.8415331
2.8999138 3.4140389 1.8461704
3.1399136 3.4939075 1.8499666
0.23991394 3.5453 1.8452765
-8.7738037e-05 3.6018114 1.8445259
4.1749959 3.6102276 1.8445849
4.2750635 3.6102276 1.844726
6.0595837 3.6102276 1.8491416
8.2414675 3.6102276 1.8476846
8.6243944 3.6102276 1.8471208
9.7148476 3.6102276 1.8496858
7.8099136 3.6219549 1.8488133
7.8099136 3.6623867 1.8454567
0.23991394 3.691823 1.8443633
3.7207386 3.7252274 1.8421103
4.373641 3.7252274 1.8403625
5.3549509 3.7252274 1.8451424
5.3819208 3.7252274 1.8430257
5.7340283 3.7252274 1.8471272
6.0656967 3.7252274 1.840324
8.2658844 3.7252274 1.849152
9.0601454 3.7252274 1.8417401
9.2872639 3.7702274 1.8480768
-8.7738037e-05 3.7802992 1.8471507
3.2199135 3.9252958 1.848031
0.23991394 3.9328542 1.8445892
3.1399133 4.0636926 1.8452213
3.1399136 4.1563382 1.8460996
3.2199135 4.1930356 1.8433996
3.2199135 4.2646475 1.8409524
3.1399136 4.4739332 1.8486646
3.1399136 4.5242929 1.8461727
2.8999138 4.6124568 1.8419398
4.824934 4.6201763 1.8458768
4.8628464 4.6201763 1.8473169
5.7957449 4.6201763 1.8470621
8.2063818 4.6201763 1.8421344
9.1519976 4.6201763 1.8494066
4.684927 4.6681271 1.8428555
1.0826535 4.6802273 1.8498029
2.4400036 4.6802273 1.8488164
2.4871931 4.6802273 1.8478489
4.5699272 4.6871262 1.8443308
-8.7738037e-05 4.6995125 1.8412352
5.3796768 4.7351761 1.849385
5.6094389 4.7351761 1.8434752
6.0949616 4.7351761 1.8455839
6.1238184 4.7351761 1.846405
6.3499126 4.737926 1.842064
7.0668612 4.7351761 1.8477346
8.7992153 4.7351761 1.8442802
-8.7738037e-05 4.7783422 1.8477175
0.20306073 4.880228 1.8481828
1.1241703 4.880228 1.84302
1.4963026 4.880228 1.8474386
1.7315395 4.880228 1.8415977
2.4798217 4.880228 1.8434781
6.4649124 4.8923593 1.8475083
0.8421576 4.9652271 1.8449856
4.684927 4.9869151 1.8423868
9.3499126 5.0110121 1.8411305
6.4649124 5.1470962 1.8462083
6.4649124 5.3901672 1.8442364
6.4649124 5.5298128 1.845387
6.0573983 5.6202278 1.8422611
9.3499126 5.7035055 1.8443769
5.9999123 5.7383566 1.8425344
6.4649124 5.7355356 1.8405496
14.439928 5.7478251 1.8413638
0.94124216 5.9952278 1.8473678
6.3499126 6.0098419 1.8452392
4.5699272 6.0407867 1.8415703
0.70017439 6.0802269 1.8405559
0.88742548 6.0802269 1.8436441
1.3187191 6.0802269 1.841566
1.4181057 6.0802269 1.842975
5.8849125 6.0931563 1.8491453
2.8999138 6.1389837 1.8479688
9.2349148 6.1424079 1.8407598
5.8849125 6.1966138 1.8492107
3.1399136 6.213469 1.841998
6.3499126 6.2517939 1.8484243
2.8999138 6.2707572 1.8416069
9.3499126 6.2738223 1.8480039
-8.7738037e-05 6.3063359 1.8442708
1.6649284 6.3139505 1.8440516
0.2775723 6.3202267 1.8481529
0.45894158 6.3202267 1.8466086
0.73212379 6.3202267 1.8414688
0.95745212 6.3202267 1.8436954
4.5699272 6.3258696 1.8452395
9.2349148 6.3430977 1.8420235
14.67993 6.3565125 1.8461933
2.8999138 6.3601246 1.845359
5.884912 6.3776326 1.844331
6.4649124 6.3833756 1.8405836
6.4649124 6.3935504 1.8463221
1.733386 6.4202271 1.8451303
2.9087157 6.4202271 1.847151
3.8187747 6.4202271 1.8468772
4.4432125 6.4202271 1.8459151
4.4903803 6.4202271 1.8468335
5.2423239 6.4202271 1.8475356
5.4990005 6.4202271 1.8402994
6.382019 6.4202271 1.8425394
7.0644965 6.4202271 1.8485601
7.0866485 6.4202271 1.8411796
7.1901035 6.4202271 1.8430159
7.4113135 6.4202271 1.846405
7.8897924 6.4202271 1.8454891
9.842452 6.4202271 1.8444095
10.194067 6.4202271 1.845222
10.729567 6.4202271 1.844017
11.119396 6.4202271 1.8437961
12.777853 6.4202271 1.8495423
13.556973 6.4202271 1.840929
13.579284 6.4202271 1.8451893
14.079449 6.4202271 1.8432536
14.256001 6.4202271 1.8479022
1.6649284 6.4564996 1.8460786
1.6649284 6.5302129 1.8457571
14.67993 6.6358652 1.8425182
14.67993 6.6480694 1.840144
3.248064 6.6602268 1.8475274
3.5565727 6.6602268 1.8434041
5.0112824 6.6602268 1.8422269
6.2437444 6.6602273 1.8435769
6.2676668 6.6602268 1.8423609
6.9283528 6.6602268 1.8453748
7.2895985 6.6602268 1.8463166
8.2102346 6.6602268 1.8400578
8.5550547 6.6602268 1.8496263
9.0472937 6.6602268 1.8488891
10.240941 6.6602268 1.8465929
12.014822 6.6602268 1.8443946
13.703982 6.6602268 1.8447938
13.899246 6.6602268 1.8446592
14.006148 6.6602268 1.8410187
14.439928 6.8076572 1.8484447
1.4249287 6.8808346 1.8450983
14.439928 7.0173807 1.8403314
0.23991394 7.0410671 1.8472449
1.4599285 7.0450644 1.8414171
1.3449287 7.1167021 1.8460077
1.4599285 7.1365271 1.8420603
1.4599285 7.2592382 1.8431711
-8.7738037e-05 7.7714362 1.8409816
7.1186905 8.1602268 1.8457247
7.2070508 8.1602268 1.8456722
7.8498449 8.1602268 1.8459322
7.8559284 8.1602268 1.8453014
9.3140583 8.1602268 1.8411909
9.3697233 8.1602268 1.8465841
1.3449287 8.2106495 1.8471884
5.5699139 8.2157927 1.8404777
6.64048 8.2752266 1.8480911
6.7161732 8.2752266 1.8400891
9.0296774 8.2752266 1.8411205
5.4549122 8.3382111 1.8446219
1.3449287 8.3700218 1.8427421
5.4549122 8.4117079 1.8456191
1.4599285 8.4289951 1.8442497
5.4549122 8.4779701 1.8415902
0.23991394 8.491189 1.847792
0.23991394 8.5288868 1.8427019
10.049913 8.5234442 1.840827
4.1399136 8.5482798 1.8455063
9.8099117 8.5514183 1.8494051
5.4549122 8.6648331 1.8449719
0.44071937 8.7602272 1.8436997
0.80557537 8.7602272 1.8498867
0.89032191 8.7602272 1.8404763
1.1263673 8.7602272 1.8451554
2.1173651 8.7602272 1.8488028
3.1216369 8.7602272 1.8463339
3.5783832 8.7602272 1.8481706
4.0633769 8.7602272 1.8478934
4.2549133 8.7649546 1.8448746
5.9523411 8.7602272 1.8492683
6.0898876 8.7602272 1.8462917
0.47374076 8.875227 1.8402435
0.99304539 8.875227 1.8457212
1.0910428 8.875227 1.8499784
1.2584006 8.875227 1.8459569
1.9329433 8.875227 1.8446246
1.9795477 8.875227 1.8458403
3.4275222 8.875227 1.847538
3.4802215 8.875227 1.8405006
6.5949135 8.8918104 1.8427422
14.67993 8.959856 1.8411433
0.23991394 8.9859114 1.8445368
0.23991394 9.1528988 1.8490022
9.8099117 9.2262125 1.8433442
14.679929 9.2630634 1.8478328
9.8099117 9.5229149 1.8440278
14.67993 9.7266445 1.8463508
0.23991394 9.7871695 1.8478295
0.23991394 9.8427982 1.8487642
6.7099133 9.9212389 1.8436466
14.439928 10.086673 1.8493977
5.5799122 10.151573 1.8477622
5.6949139 10.240759 1.8406088
9.8099117 10.255661 1.8490524
10.049913 10.264856 1.8480411
14.67993 10.33743 1.8441998
4.2516832 10.475227 1.8484588
6.7099133 10.485296 1.8459874
3.2549133 10.575435 1.8409172
3.4098318 10.575228 1.8404467
3.4295318 10.575228 1.8464706
5.4764185 10.575228 1.8458863
6.0234756 10.570227 1.8433654
6.496769 10.570227 1.8463203
4.158287 10.690228 1.8431902
4.2220063 10.690228 1.8456266
5.2779069 10.690228 1.8448056
6.7099133 10.711396 1.8468252
3.1399136 10.753841 1.8423967
5.6949139 10.781126 1.8478272
5.6286902 10.990227 1.8497849
5.6425848 10.990227 1.8425832
9.8099117 11.027815 1.8413427
3.1399136 11.085363 1.841886
5.5867224 11.105228 1.840115
5.8973441 11.105228 1.8413429
6.145247 11.105228 1.8448865
10.049913 11.120461 1.8481584
0.23991394 11.300177 1.8462892
9.8099117 11.392621 1.848738
3.2549133 11.572453 1.8406079
3.2549133 11.636396 1.8448129
3.2549133 11.667095 1.846457
3.2549133 11.886583 1.846745
-8.7738037e-05 12.366902 1.8499919
3.2549133 12.409629 1.8422523
0.23991394 12.529296 1.8499398
0.23991394 12.582093 1.8400515
3.2549133 12.679945 1.8403356
6.7099133 12.672245 1.8452965
6.7099133 12.682329 1.8401496
9.8099117 12.69194 1.8431723
-8.773803e-05 12.766805 1.8475492
0.00035519435 12.960228 1.8492395
0.13047256 12.960228 1.8429482
0.73659265 12.960228 1.8445134
0.82082599 12.960228 1.8422703
2.8761699 12.960228 1.845331
3.1716552 12.960229 1.8458735
3.4607992 12.960228 1.8431867
6.7063694 12.960228 1.8464746
7.0999126 12.987005 1.8436232
7.0999126 13.15075 1.8462764
10.049913 13.153352 1.8413521
0.57242221 13.200228 1.8478938
0.748245 13.200228 1.848202
1.0710142 13.200228 1.8424774
1.2359802 13.200227 1.8432133
1.4398984 13.200228 1.8406906
2.6838121 13.200228 1.8449119
3.2694445 13.200228 1.8472068
5.3537445 13.200228 1.8406491
5.4004726 13.200228 1.8426514
5.716855 13.200228 1.8414371
6.4331808 13.200228 1.8426905
9.3072472 13.200228 1.8429611
9.8099117 13.213531 1.8475169
10.049913 13.307952 1.8437297
9.8099117 13.486206 1.8445191
9.8099117 13.599421 1.8427275
14.439928 13.676642 1.840503
14.67993 13.687447 1.8446585
10.171535 13.810228 1.8461548
14.204971 13.810228 1.840565
10.049913 13.88676 1.8495152
14.439928 13.908398 1.846925
10.484919 14.021873 1.8464146
10.053366 14.050228 1.8421032
2.7089691 0.0052280426 1.8507527
2.7270851 0.0052280426 1.8597058
3.3324919 0.0052280426 1.8554091
5.5755682 0.0052280426 1.8507743
6.2430038 0.0052280426 1.8504264
6.7840376 0.0052280426 1.8557552
9.9913826 0.0052280426 1.8526673
10.205981 0.0052280426 1.8516248
14.485338 0.0052280426 1.854663
14.566838 0.0052280426 1.8565511
14.64679 0.0052280426 1.8583108
7.949913 0.072984591 1.853655
0.23991394 0.10810423 1.8527133
11.419928 0.18818618 1.8561482
-8.7738037e-05 0.20031047 1.8518496
0.71241379 0.22032127 1.8527522
11.419928 0.23505107 1.8578627
2.752569 0.24022675 1.8526975
3.1414838 0.24022675 1.8527966
3.3151255 0.24022675 1.8582864
3.5895979 0.24022675 1.8534282
5.4320164 0.24022673 1.8526857
6.1532001 0.24022675 1.8523045
8.3531027 0.24022675 1.8520561
8.3927717 0.24022675 1.8553824
9.0566311 0.24022675 1.8590324
9.9253292 0.24022675 1.8529575
10.048053 0.24022675 1.8512832
10.5044 0.24022675 1.8515906
10.700146 0.24022675 1.8503014
14.472786 0.24022675 1.8530236
2.8999138 0.38072655 1.8543658
14.439928 0.4560408 1.8562049
3.1399136 0.51095557 1.8560725
2.8999135 0.56017995 1.8539609
0.23991394 0.76053041 1.856447
2.8999138 0.99473649 1.8555743
14.67993 1.008116 1.8592782
10.049913 1.0588158 1.857008
3.1399138 1.1499536 1.8553952
6.0524135 1.1783996 1.8563507
2.8999138 1.2124407 1.8507034
6.0524139 1.2309664 1.8528239
6.206707 1.2402267 1.8580918
14.67993 1.2911879 1.8511903
10.049913 1.3963684 1.8574302
9.8099117 1.4167566 1.8524643
10.049913 1.4122952 1.8553479
14.439928 1.4161806 1.8595276
6.2099133 1.4527234 1.8554989
10.049913 1.5716031 1.853107
9.8099117 1.6912836 1.8519512
3.2199135 1.8017098 1.8507215
6.0949135 1.8322499 1.8539464
6.0949135 1.9238203 1.8564506
14.439928 1.94052 1.8568277
3.1399136 1.9528267 1.8524158
3.1399136 2.0031722 1.8551272
14.439928 2.0544236 1.858656
3.1399136 2.0937474 1.8513553
9.8099117 2.1976418 1.8587058
10.049913 2.2382545 1.8586769
0.21253996 2.375227 1.8589411
-8.7738037e-05 2.4246402 1.8509389
3.2199135 2.445715 1.8525387
14.67993 2.5726864 1.8542399
0.23991394 2.5900927 1.8596743
9.8099117 2.6536148 1.8532348
0.23991394 2.7027683 1.855121
14.67993 2.7161477 1.8506129
2.8999138 2.7390194 1.85594
3.1399136 2.7354245 1.8570845
3.2199135 2.7930794 1.8563097
14.67993 2.7981551 1.8534495
9.8099117 2.8261347 1.858646
9.8099117 2.8774645 1.8539069
10.049913 2.9035668 1.8536488
2.8999138 2.9179108 1.8588265
10.049913 3.010916 1.850511
2.8999138 3.0420747 1.856993
6.2099133 3.143261 1.8533843
2.8999138 3.1682048 1.8572167
3.1399136 3.2617066 1.8540217
10.049913 3.2663548 1.8516265
3.1399136 3.4366736 1.8583639
3.5826442 3.6102276 1.8516421
6.3520083 3.6102276 1.8552556
6.3708277 3.6102276 1.8500631
7.966136 3.6102273 1.8593162
8.2806606 3.6102278 1.8527666
5.3099136 3.6246235 1.8530579
3.1399136 3.6817193 1.850955
10.049913 3.7128007 1.8518567
3.2887263 3.7252274 1.8574972
5.6224165 3.7252274 1.8530678
9.6239157 3.7252274 1.8577197
3.2199135 3.7950702 1.8520956
3.1399136 3.8722572 1.8568543
3.1399136 3.9325442 1.8560573
0.23991394 3.9556508 1.8550133
-8.7738037e-05 4.2169991 1.8514376
3.1399136 4.2597132 1.8524845
0.23991394 4.2853937 1.8521417
2.8999138 4.2962713 1.8530648
5.0766129 4.6201763 1.859303
5.4906664 4.6201763 1.8558228
5.9494429 4.6201763 1.8517408
6.7177734 4.6201763 1.8501382
9.0285006 4.6201763 1.8513952
-8.7738037e-05 4.6806512 1.8536185
0.59246838 4.6802273 1.8586888
0.63440317 4.6802273 1.8560467
0.77145255 4.6802273 1.8509084
0.8946557 4.6802273 1.8574932
1.1317749 4.6802273 1.8503804
1.4021875 4.6802273 1.8591568
1.4523818 4.6802273 1.8575054
2.8256416 4.6802273 1.85423
3.2199135 4.7017746 1.853107
0.23991394 4.7246184 1.8516111
4.684927 4.7210307 1.8568171
5.4525137 4.7351761 1.8561404
5.8937178 4.7351761 1.8509631
6.0479183 4.7351761 1.852986
6.4686155 4.7351761 1.8569812
6.5469484 4.7351761 1.8581724
8.43645 4.7351761 1.8544146
0.23991394 4.7611327 1.852017
6.4649124 4.7758083 1.8535624
9.236618 4.7802277 1.8591806
9.2909355 4.7802277 1.8568134
9.2349148 4.8738279 1.8577008
1.1499678 4.880228 1.8536185
2.4269657 4.880228 1.855628
3.1399136 4.8936996 1.8584687
0.95991325 4.9229693 1.8585591
0.87202466 4.9652271 1.8504428
4.5699272 4.9618425 1.8533981
6.4649124 5.0188823 1.8504837
6.4649124 5.456645 1.8500237
6.2321234 5.6202278 1.8533263
6.1457562 5.7402267 1.8584701
5.9999123 5.7529926 1.854939
6.4649124 5.787693 1.852459
5.9999123 5.8312736 1.8516865
6.4649124 5.8940687 1.8585211
14.439928 5.9130025 1.8551105
9.3499126 5.9677181 1.8522702
3.2199135 5.986866 1.8586435
0.78684425 5.9952283 1.8591056
9.3499126 6.0070963 1.8500507
5.8849125 6.0530686 1.8560674
0.10595547 6.0802269 1.8522856
0.67841506 6.0802269 1.8527249
1.1739817 6.0802269 1.8515259
1.4249287 6.1156402 1.8548895
9.3499126 6.110126 1.8510852
1.4249287 6.1492968 1.8501253
2.8999138 6.1814795 1.8500832
4.684927 6.1901722 1.8521848
9.2349148 6.2367783 1.8512473
9.3499126 6.2573776 1.8562121
3.1399136 6.2824383 1.8585426
5.9999123 6.2886863 1.8529469
4.5699272 6.2934694 1.8538253
0.39747202 6.3202267 1.8561548
0.62003541 6.3202267 1.8588831
0.62016964 6.4002266 1.8543943
0.67660195 6.4002266 1.858402
9.3499136 6.4178276 1.859777
14.439928 6.4195595 1.8555779
3.0419486 6.4202271 1.8533084
3.8924749 6.4202271 1.8546273
4.868104 6.4202271 1.8537303
5.1180129 6.4202271 1.8538933
6.1689601 6.4202271 1.8515444
6.4514217 6.4202271 1.8515995
7.3091292 6.4202271 1.8550217
7.496871 6.4202271 1.8517165
8.3171539 6.4202271 1.8599507
8.7292337 6.4202271 1.8532083
8.842495 6.4202271 1.8581736
10.234086 6.4202271 1.8550249
10.635815 6.4202271 1.8547256
12.817727 6.4202271 1.8567266
12.932361 6.4202271 1.8529979
13.383606 6.4202271 1.8532518
1.4249287 6.5241828 1.8550274
1.4249287 6.5436645 1.8563136
1.4249287 6.6221371 1.8596481
1.3449287 6.6344271 1.8535286
1.6750646 6.6602268 1.8550451
4.1160774 6.6602268 1.8584012
4.4577336 6.6602268 1.8546385
4.6845226 6.6602268 1.8591672
4.8321624 6.6602273 1.8530841
5.5883274 6.6602268 1.8514739
5.6125112 6.6602268 1.8510505
5.7932525 6.6602268 1.8570498
6.7621059 6.6602268 1.852176
8.4633522 6.6602268 1.8525047
9.8485813 6.6602268 1.8536911
9.8861008 6.6602268 1.8597827
10.259548 6.6602268 1.8545384
10.938238 6.6602268 1.8527122
11.569167 6.6602268 1.8566246
12.756739 6.6602268 1.8526304
13.039492 6.6602268 1.8590878
13.094623 6.6602268 1.8506261
14.439928 6.6723461 1.8533572
0.23991394 6.8226638 1.853348
1.4599285 6.9640532 1.8596241
-8.7738037e-05 7.0631747 1.8535137
14.67993 7.1206431 1.852175
14.439928 7.139679 1.8507149
0.23991394 7.1891098 1.8509812
14.67993 7.2078972 1.859457
14.67993 7.3937931 1.8565717
0.23991394 7.4317732 1.8551701
14.439928 7.5991254 1.8591361
-8.7738037e-05 7.6647124 1.8549072
0.23991394 7.8240557 1.8519583
-8.7738037e-05 8.1252565 1.8592898
-8.7738037e-05 8.145936 1.8564451
6.704711 8.1602268 1.8514141
7.4727159 8.1602268 1.853483
9.4780378 8.1602268 1.8550503
9.7617502 8.1602268 1.8537468
7.2816219 8.2752266 1.8548857
8.3840456 8.2752266 1.8588336
8.6549435 8.2752266 1.8507342
9.4171181 8.2752266 1.8502448
4.1399136 8.3362494 1.8574654
9.8099117 8.3454542 1.8514309
6.5949135 8.3655872 1.8514549
5.4549122 8.4262209 1.8594713
-8.7738037e-05 8.4544964 1.8587707
1.3449287 8.5493612 1.8591385
-8.7738037e-05 8.5828829 1.8585463
0.38991356 8.6694221 1.8556397
14.551327 8.7002277 1.8562346
1.4599285 8.714282 1.8563197
1.3449287 8.7215757 1.8509256
10.049913 8.7247353 1.8530785
2.0328979 8.7602272 1.8571889
2.1956894 8.7602272 1.8552046
5.8916736 8.7602272 1.8549091
0.23991394 8.7767286 1.8575493
14.439928 8.8298655 1.852676
0.23991394 8.8699217 1.8573427
4.2549133 8.8641624 1.858412
1.8363365 8.875227 1.8576691
4.0136766 8.875227 1.8542888
14.67993 8.9644451 1.8589497
6.6385994 8.9752274 1.8589777
4.2549133 9.0613661 1.8554269
14.679931 9.093791 1.8591045
4.1399136 9.1072788 1.8532871
14.67993 9.309659 1.8515377
14.439928 9.3977833 1.8592542
9.8099117 9.4927168 1.8594215
14.67993 9.5240602 1.8500434
4.2549133 9.55966 1.8526304
4.172945 9.5752277 1.8511955
9.8099117 9.6153049 1.8599477
14.67993 9.9037571 1.8512936
5.6949139 10.000588 1.8577423
10.049913 10.101843 1.8559046
14.439928 10.15593 1.8569338
6.5949135 10.167516 1.8532941
5.6949139 10.253206 1.8576996
6.5949135 10.300898 1.8506305
9.8099117 10.355301 1.8539467
-8.7738037e-05 10.535023 1.8594723
14.67993 10.546746 1.8510804
3.7030993 10.575228 1.8538258
5.4160018 10.575228 1.8549799
5.6403527 10.572727 1.8579078
14.67993 10.608375 1.8517511
3.1399136 10.617814 1.8513383
3.2549133 10.610625 1.8507117
5.6949139 10.614108 1.855215
4.3549137 10.649697 1.8526753
10.049913 10.652906 1.8585775
5.5799122 10.676212 1.8589889
9.8099117 10.68254 1.8563151
3.9870772 10.690228 1.8549144
6.0438023 10.690228 1.8520304
6.344883 10.690228 1.8516029
6.5949135 10.704651 1.8526386
6.7099133 10.767291 1.8595647
9.8099117 10.822275 1.8546591
10.049913 10.830369 1.8579867
10.049913 10.966994 1.8503103
0.23991396 11.053926 1.8596474
5.6395535 11.105228 1.8587325
9.8099117 11.149144 1.8583915
3.2549133 11.277223 1.8593378
6.7099133 11.292141 1.8500528
3.1399136 11.460043 1.8566903
10.049913 11.528955 1.8558934
3.2549133 11.739538 1.8510008
0.23991394 11.787935 1.8594787
9.8099117 11.91725 1.8592892
3.2549133 11.937228 1.8510149
-8.7738037e-05 11.957731 1.8559091
3.2549133 11.966137 1.855998
9.8099117 12.087965 1.8575844
0.23991394 12.2626 1.8522359
3.1399136 12.471489 1.8537817
0.23991394 12.534257 1.8525048
6.7099133 12.572473 1.852989
6.5949135 12.731023 1.8584061
6.594913 12.781722 1.8580935
3.2549133 12.863976 1.8549486
-8.7738037e-05 12.969934 1.8544167
0.0045185909 12.960229 1.8582311
0.23064317 12.960228 1.8574883
0.40088212 12.960228 1.8565966
1.0008453 12.960228 1.8529644
2.6670744 12.960228 1.8525399
2.9849093 12.960228 1.850842
3.121192 12.960228 1.852963
6.9653573 12.960228 1.8577304
7.0401382 12.960228 1.8583214
9.456543 12.960228 1.850275
4.6269131 13.010092 1.8575521
4.6269131 13.065287 1.8506099
9.8099117 13.171875 1.8588643
7.0999126 13.194378 1.8501194
0.2705797 13.200228 1.8524259
1.0541863 13.200228 1.8527254
1.2368683 13.200228 1.8547996
1.2685058 13.200228 1.8593031
1.411888 13.200228 1.8548974
4.0255275 13.200228 1.8595815
4.2539368 13.200228 1.85755
4.4020452 13.200229 1.8534249
5.6839523 13.200228 1.8589723
6.265357 13.200228 1.8589638
7.0578084 13.200227 1.8532687
9.6527195 13.200228 1.8582437
9.679615 13.200228 1.8567089
9.7023935 13.200228 1.8514732
9.8099117 13.325459 1.8543875
10.049913 13.339321 1.8500364
9.8099117 13.411269 1.8533342
14.554096 13.640228 1.8512186
9.8099117 13.678153 1.8510635
10.049913 13.726386 1.8532113
9.8099117 13.805248 1.8598131
14.223286 13.810228 1.8513749
14.256985 13.810228 1.8508198
10.484919 13.915678 1.8571806
9.955698 14.050228 1.8595185
10.380212 14.050228 1.8566909
14.37851 14.050228 1.8540994
3.2535222 0.0052280426 1.8602651
3.4151442 0.0052280426 1.8691022
3.8212054 0.0052280426 1.8662125
5.1001978 0.0052280426 1.866509
5.8100691 0.0052280426 1.8620523
5.8996201 0.0052280426 1.8694533
8.3438683 0.0052280426 1.8623471
8.4165726 0.0052280426 1.8644562
8.4755325 0.0052280426 1.8635185
9.3496132 0.0052280426 1.8662487
9.5735245 0.0052280426 1.8684936
9.888258 0.0052280426 1.8648106
10.595378 0.0052280426 1.8620044
10.787922 0.0052280426 1.86445
11.304615 0.0052280426 1.8663688
14.569322 0.0052280426 1.8614676
14.589281 0.0052280426 1.8674841
0.71241379 0.066791832 1.8623097
4.9449139 0.14416713 1.8613575
6.8999138 0.1758758 1.8603777
5.94312 0.24022675 1.8661172
6.1085262 0.24022675 1.8672798
6.1391449 0.24022675 1.8626804
6.30408 0.24022675 1.8634582
6.8065753 0.24022675 1.8626652
8.2386255 0.24022675 1.8611292
8.4197645 0.24022675 1.8670096
10.14818 0.24022675 1.8681407
10.398752 0.24022675 1.8635743
10.605354 0.24022675 1.8674049
10.924927 0.24022676 1.8686604
0.23991394 0.26882702 1.8670881
3.1399133 0.28786284 1.8628299
10.049913 0.28088778 1.8651837
3.2199135 0.32962573 1.8647928
3.2199132 0.35073832 1.8655218
14.439928 0.41731608 1.8642231
14.67993 0.43685734 1.867107
3.2199135 0.52538741 1.8605469
9.8099117 0.58334273 1.8647146
0.23991394 0.78690922 1.8694947
3.1399136 0.80623299 1.8680984
10.049913 0.82301128 1.8610713
3.1399136 0.93689156 1.8696344
-8.7738037e-05 0.95194227 1.8645561
-8.7738037e-05 0.97388399 1.8655771
3.1399136 1.0018133 1.8627763
9.8099117 1.0706786 1.8674303
0.14017551 1.2402267 1.8625486
6.0726433 1.2402267 1.863134
10.049913 1.2712307 1.866044
10.049913 1.2820035 1.864543
9.8099117 1.5152144 1.8697875
9.8099117 1.6147243 1.8635019
14.439928 1.6805683 1.8628614
2.8999138 1.7148101 1.8667464
14.67993 1.7278428 1.8633403
14.439928 1.8118513 1.8649602
2.8999138 1.8771902 1.8683232
14.67993 1.8770669 1.8690019
2.8999138 2.02456 1.8660169
14.67993 2.3096302 1.8690814
10.049913 2.3615799 1.8643429
10.049913 2.3881686 1.8630718
-8.7738037e-05 2.4962823 1.8639058
-8.7738037e-05 2.5112863 1.86282
0.23991394 2.5119035 1.8658739
14.439928 2.5599711 1.860094
14.67993 2.560334 1.8658092
3.1399136 2.5962906 1.8633209
2.8999138 2.8002546 1.8684752
14.439928 2.8108492 1.8685732
0.23991394 3.0464716 1.8646264
0.23991394 3.08111 1.8679271
3.2199135 3.0856979 1.860615
3.2199135 3.1580319 1.8676902
3.1399136 3.1613457 1.8680747
-8.7738037e-05 3.4887769 1.8671286
6.5090847 3.6102276 1.8618296
7.8997545 3.6102278 1.8684422
8.1135349 3.6102276 1.8654175
8.8933926 3.6102276 1.8623217
9.9197006 3.6102276 1.8692145
7.8099136 3.6582947 1.8657944
3.1726286 3.7252276 1.8620268
3.2043808 3.7252274 1.8634534
3.250735 3.7252274 1.8621851
4.1906352 3.7252274 1.8687775
5.6447239 3.7252274 1.863897
5.8934088 3.7252274 1.8690027
6.2867413 3.7252274 1.8655344
6.5044069 3.7252274 1.8621957
3.2199135 3.7488441 1.8696826
3.1399136 3.830101 1.860027
2.8999138 3.8741121 1.8623552
3.2199135 3.9198136 1.8634161
3.1399136 3.9281995 1.8674316
0.23991394 4.0605268 1.8681486
-8.7738037e-05 4.0939937 1.8622688
2.8999138 4.1437893 1.8649927
3.2199135 4.2286034 1.8631496
0.23991394 4.2380481 1.8636184
-8.7738037e-05 4.4240417 1.8669249
3.1399136 4.4233575 1.8674603
3.2199135 4.6125984 1.8678955
7.1512985 4.6201763 1.861903
8.5194893 4.6201763 1.8628885
8.9187431 4.6201763 1.8690432
0.23991394 4.6560192 1.8613465
0.30416119 4.6802273 1.8659254
2.8986464 4.6802273 1.8615959
4.684927 4.6952219 1.8626047
6.2516088 4.7351761 1.869133
6.4966364 4.7351761 1.8680328
6.7545853 4.7351761 1.8632927
8.5208139 4.7351761 1.8677558
8.54846 4.7351761 1.869417
9.2005386 4.7351761 1.8612884
6.3499126 4.7443709 1.8618517
-8.7738037e-05 4.7582598 1.8669214
4.684927 4.8106751 1.8617173
0.26578665 4.880228 1.8644583
0.83105254 4.880228 1.8659461
1.4914197 4.880228 1.8696799
9.2349148 4.9083867 1.8659788
6.3499126 4.9172301 1.8633552
2.9805508 4.9552269 1.8664783
4.684927 5.0270557 1.8649848
6.4649124 5.0245728 1.8686583
6.4649124 5.1696825 1.8615242
9.3499126 5.208447 1.8636929
6.3499126 5.4173284 1.8699292
6.4649124 5.5025859 1.8602095
6.0011821 5.6202278 1.8602587
6.4649124 6.0613604 1.8624475
0.31898385 6.0802269 1.8624748
0.46770415 6.0802269 1.8624926
0.75218487 6.0802269 1.8650439
0.9080857 6.0802269 1.8672473
1.4061216 6.0802269 1.8669769
1.4708486 6.0802269 1.8699315
0.23991394 6.1595569 1.8615772
0.23991394 6.2556973 1.8638676
5.8849125 6.2676682 1.8681779
6.4649124 6.2760124 1.8627435
1.4249287 6.3145843 1.8612983
0.75480258 6.3202267 1.8661559
0.82052743 6.3202267 1.8692923
1.0453093 6.3202267 1.8650002
1.4035302 6.3202267 1.8615068
9.3499126 6.325613 1.8639305
6.3499126 6.3516603 1.8690951
0.68105578 6.4002266 1.8693389
1.2314314 6.4002266 1.8694477
1.3752018 6.4002266 1.8646376
1.6649284 6.4278569 1.8649267
3.7491937 6.4202271 1.8637176
4.3705063 6.4202271 1.8685722
5.9020128 6.4202271 1.8649921
7.9112291 6.4202271 1.8629287
8.0015354 6.4202271 1.8690461
8.8223324 6.4202271 1.8692874
9.2685423 6.4202271 1.8634657
9.3414211 6.4202266 1.8677716
10.13218 6.4202271 1.8678282
12.170517 6.4202271 1.8695263
1.4249287 6.4534512 1.8659103
4.046782 6.6602268 1.8606255
5.4689217 6.6602268 1.8671362
5.5747828 6.6602268 1.8667549
5.9154682 6.6602268 1.8675764
7.4815178 6.6602268 1.8635674
8.6309938 6.6602268 1.8639718
9.8343258 6.6602268 1.8682311
10.173473 6.6602268 1.8669906
12.409142 6.6602268 1.8694167
12.418912 6.6602268 1.8689367
13.127978 6.6602273 1.8611145
13.394609 6.6602268 1.8659827
13.860387 6.6602263 1.863436
14.286366 6.6602268 1.8623315
14.419824 6.6602268 1.8637909
1.3449287 6.8086691 1.8642575
14.439928 6.8679266 1.865658
14.439928 6.9235492 1.8693025
14.439928 7.050549 1.8601054
14.439928 7.2410765 1.8604414
0.23991394 7.3003554 1.8660796
-8.7738037e-05 7.5117674 1.8655075
0.23991394 7.8434706 1.8616431
-8.7738037e-05 7.8582568 1.8604225
0.23991394 8.0057268 1.8674407
0.23991394 8.0300121 1.8633831
6.6155472 8.1602268 1.8628893
7.2163792 8.1602268 1.8623562
8.2636843 8.1602268 1.8690678
9.1568336 8.1602268 1.8678613
9.3485947 8.1602268 1.8622698
-8.7738037e-05 8.2113628 1.8693818
6.7874932 8.2752266 1.8663365
7.2109079 8.2752266 1.8634951
8.1626453 8.2752266 1.8655801
8.227726 8.2752266 1.8622689
8.2681513 8.2752266 1.8693631
9.3741131 8.2752266 1.8623145
