# .PCD v0.7 - Point Cloud Data file format
VERSION 0.7
FIELDS x y z
SIZE 4 4 4
TYPE F F F
COUNT 1 1 1
WIDTH 1588
HEIGHT 1
VIEWPOINT 0 0 0 1 0 0 0
POINTS 1588
DATA ascii
3.9914451 10.575228 2.0955429
5.5983758 10.575228 2.0989532
-8.7738037e-05 10.588243 2.0948544
9.8099117 10.588719 2.0987985
14.67993 10.656652 2.0940168
6.4799132 10.6662 2.0968437
-8.7738037e-05 10.689061 2.0908484
3.7934344 10.690228 2.0988057
10.049913 10.7641 2.0993063
3.1399136 10.811036 2.0981467
6.4799137 10.839691 2.0932562
3.2549133 10.881371 2.0998948
10.049913 10.884954 2.096611
6.5949135 10.911716 2.092129
3.2549136 10.952531 2.0939302
14.642962 10.960228 2.0909772
5.7104287 10.990227 2.0942421
5.8670049 10.990227 2.0943398
6.0054741 11.105228 2.0927191
3.2549133 11.11501 2.0909224
6.5949135 11.118418 2.0904217
-8.7738037e-05 11.189281 2.0944452
9.8099117 11.364166 2.0969679
6.4799137 11.416082 2.0978904
10.049913 11.449718 2.0956712
-8.7738037e-05 11.682338 2.0951452
0.23991394 11.683167 2.0951204
0.23991394 11.703958 2.0998266
0.23991394 11.712122 2.0928156
9.8099117 11.883874 2.0963523
0.23991394 12.457846 2.0995142
-8.7738044e-05 12.635333 2.0983386
6.4799137 12.712523 2.0980694
0.12746757 12.734343 2.093348
0.5028348 12.734343 2.0943956
3.2307546 12.734343 2.092401
3.6116004 12.734343 2.0914636
5.9161196 12.734343 2.0983546
5.9399118 12.734343 2.0953569
6.107688 12.734343 2.0928936
6.7935462 12.734343 2.0962808
9.4016438 12.734343 2.0949535
9.8099117 12.770108 2.0949924
7.0999126 12.928178 2.0924761
9.8099117 12.935007 2.0958581
0.16187635 12.974342 2.0915198
3.8427694 12.974342 2.0925319
5.7908168 12.974342 2.0957305
5.9986687 12.974342 2.0911663
6.2801619 12.974342 2.096055
6.4651499 12.974342 2.0959363
6.8329821 12.974342 2.0936952
9.3168888 12.974342 2.0942259
9.7556934 12.974342 2.0918429
9.8099117 13.17383 2.0932374
10.049913 13.365225 2.0962269
10.049913 13.464237 2.0986867
10.049913 13.689101 2.0960104
14.030939 13.810227 2.0959089
9.8099117 13.910675 2.0961301
14.439928 13.91056 2.0904248
9.8099117 14.046732 2.0909138
14.160906 14.050228 2.0953028
14.473545 14.050228 2.0908892
3.2893155 0.0052280426 2.1067321
5.2774096 0.0052280426 2.1053622
5.8345008 0.0052280426 2.1041327
8.2369442 0.0052280426 2.1029229
9.349041 0.0052280426 2.1063824
14.67993 0.084263407 2.1053815
0.23991394 0.17533445 2.1052926
3.0070758 0.24022675 2.1074419
3.0774827 0.24022675 2.1047649
3.1607842 0.24022675 2.1050377
3.1947558 0.24022675 2.1060898
9.9873714 0.24022675 2.1021888
10.01901 0.24022675 2.1074717
10.034039 0.24022675 2.1057987
10.380829 0.24022673 2.1081758
14.67993 0.26790285 2.1012931
-8.7738037e-05 0.29077548 2.1043212
6.2524128 0.33822119 2.105484
9.8099117 0.42183426 2.104383
6.0524139 0.46546611 2.1057014
3.2199135 0.48333091 2.1009362
3.2199135 0.51736289 2.1094236
9.8099117 0.53590399 2.1045294
3.1399136 0.63247252 2.1022599
2.8999138 0.69945431 2.1076164
0.23991394 0.73455489 2.1057122
6.0524139 0.78507268 2.108181
3.1399136 0.79019749 2.1062458
3.2199132 0.88886714 2.1079898
9.8099117 0.9004699 2.1025283
9.8099117 0.95458758 2.1056411
0.052444872 1.2402267 2.1087277
6.1410494 1.2402267 2.1033051
9.8099117 1.3602456 2.1004491
14.439928 1.3721346 2.1089633
6.2099133 1.6616184 2.1030486
14.439928 1.7055633 2.1067538
6.2099133 1.7163287 2.1025763
14.679929 1.719604 2.1001499
3.1399136 1.7868938 2.1082304
2.8999138 1.8865311 2.104151
2.8999138 1.9538561 2.1020441
14.67993 2.1384249 2.1019189
10.049913 2.2631373 2.1086166
0.10579178 2.375227 2.1062021
2.8999138 2.3722599 2.1063421
14.67993 2.3751853 2.1038983
2.8999138 2.4142811 2.1026802
3.1399136 2.4258645 2.1055331
-8.7738037e-05 2.5761044 2.1000285
9.8099117 2.718255 2.1093597
6.2099133 2.7705836 2.1037235
6.2099133 3.0023465 2.1050677
6.0949135 3.0371284 2.1026263
3.1399136 3.0576084 2.1012025
6.0949135 3.0821881 2.103488
10.049913 3.1068115 2.1055064
6.0949135 3.1277471 2.1007593
3.1399136 3.1354816 2.100462
3.1399136 3.1583068 2.105139
10.049913 3.3301094 2.1056635
10.049913 3.3494821 2.1067004
3.2199135 3.355341 2.1059835
-8.7738037e-05 3.360112 2.1063576
9.8099117 3.3794274 2.1038628
6.2099133 3.3949192 2.109637
9.8099117 3.4587162 2.1060064
10.049913 3.5264559 2.1049709
3.6548409 3.6102276 2.1035457
5.4992347 3.6102276 2.1073761
6.1271725 3.6102278 2.1025069
7.8915462 3.6102276 2.1007485
8.4005327 3.6102276 2.1003881
3.1399136 3.6485996 2.1049323
3.9642496 3.7252274 2.1069813
4.0804172 3.7252274 2.1095583
4.1279078 3.7252274 2.1028521
4.2467442 3.7252274 2.1095712
4.3420525 3.7252274 2.1047194
5.4012222 3.7252274 2.107887
5.6512589 3.7252274 2.1014395
8.3604326 3.7252274 2.1005106
8.4720278 3.7252276 2.1066551
3.1399136 3.790879 2.1082804
0.23991394 3.8063459 2.1062722
2.8999138 3.8053148 2.1041131
3.1399136 3.8361809 2.1082952
0.23991394 3.9847229 2.103888
3.1399136 4.0217948 2.1027994
3.1399136 4.4109411 2.1071856
1.2903423 4.6802273 2.107034
1.379841 4.6802273 2.1026268
1.7471731 4.6802273 2.1087537
-8.7738037e-05 4.7590766 2.104717
3.2199135 4.7514029 2.1043482
4.5699415 4.8252277 2.1056466
5.083962 4.8252277 2.1078217
6.4398541 4.8252277 2.1056023
9.2349148 4.8397341 2.1031804
2.8999138 4.8456516 2.1072979
9.3499126 4.8763332 2.1042707
0.09573324 4.880228 2.1078627
0.26121363 4.880228 2.1014977
0.46482283 4.880228 2.1045702
1.4144841 4.880228 2.1053741
2.5782745 4.880228 2.1084945
3.1399136 4.9274139 2.1028202
4.9173799 4.9402275 2.1012864
5.1125436 4.9402275 2.1006026
5.2092357 4.9402275 2.1094992
6.237988 4.9402275 2.1043262
6.6244636 4.9402275 2.1089752
7.1791973 4.9402275 2.1071072
9.3499126 4.9426651 2.1079216
6.4649124 4.953753 2.1058333
6.4649124 5.0676246 2.1056428
9.2349148 5.195951 2.1031866
9.2349148 5.479682 2.1091876
5.8849125 5.735568 2.1044626
6.4649124 5.8571997 2.1088667
14.439928 5.894083 2.1005306
3.0036528 5.9852276 2.1046805
0.81449127 5.9952278 2.1099782
5.8849125 6.055512 2.1012011
0.23430751 6.0802269 2.104604
0.56309235 6.0802269 2.101038
0.85101426 6.0802269 2.1011658
1.3680024 6.0802269 2.1029553
3.1399136 6.1155281 2.1042392
4.5699272 6.1383543 2.1054194
6.3499126 6.157784 2.1016929
6.3499126 6.2026348 2.108036
0.23991394 6.3062043 2.1063373
2.8999138 6.3072281 2.1021369
-8.7738037e-05 6.3116894 2.1037264
0.54435116 6.3202267 2.107815
0.69471389 6.3202267 2.1080487
0.72836369 6.3202267 2.1058927
0.76579618 6.3202267 2.1072793
1.4249287 6.3536491 2.1077013
-8.7738037e-05 6.4400764 2.1074979
1.4249287 6.4474158 2.1089368
6.3499122 6.5199018 2.1047702
9.3499126 6.5462828 2.1093566
14.67993 6.5688457 2.1005838
9.2349148 6.5919261 2.1099744
3.2285972 6.6402283 2.1045184
3.595536 6.6402283 2.1086462
3.9703226 6.6402283 2.1098106
5.370471 6.6402283 2.1023829
5.4130449 6.6402283 2.1039746
6.3735366 6.6402283 2.1036
6.4222393 6.6402283 2.1023784
8.5060577 6.6402283 2.1049318
9.5970211 6.6402283 2.1072609
9.7051973 6.6402283 2.1046076
10.228404 6.6402283 2.1002035
10.682982 6.6402283 2.1025767
10.706287 6.6402283 2.1001348
11.547135 6.6402283 2.1079354
14.439928 6.6671791 2.1058869
1.6649284 6.6714096 2.1085105
14.67993 6.7576041 2.1038074
1.6649284 6.76966 2.103559
2.8805959 6.880228 2.1016488
3.0078466 6.8802285 2.1089203
3.8831546 6.880228 2.1027212
3.9927211 6.880228 2.1037931
5.4202833 6.880228 2.1036561
6.4398608 6.880228 2.1062551
6.4539366 6.880228 2.1088326
6.6296687 6.880228 2.1008806
7.2050037 6.880228 2.1011405
7.2262239 6.880228 2.1079102
8.2087383 6.880228 2.1082211
8.2481108 6.880228 2.1086788
9.2299557 6.880228 2.1004159
9.8654528 6.880228 2.1024086
12.348673 6.880228 2.105968
12.963035 6.880228 2.1098225
13.829598 6.880228 2.1057622
1.4189866 6.960228 2.1019344
-8.7738037e-05 7.7625594 2.1095772
6.9548244 8.1602268 2.1053956
7.3404493 8.1602268 2.1073806
7.7724299 8.1602268 2.1021669
8.359416 8.1602268 2.1066389
8.3996201 8.1602268 2.1067915
8.4207811 8.1602268 2.1030531
9.1028433 8.1602268 2.1026502
9.6946001 8.1602268 2.1074867
9.9405499 8.1602268 2.1081634
-8.7738037e-05 8.1920776 2.1064987
10.049913 8.2661428 2.1055362
4.1399136 8.2731142 2.1001277
6.5028839 8.2752266 2.1031265
6.8535943 8.2752266 2.1034322
8.6377268 8.2752266 2.1085927
8.9128819 8.2752266 2.1027298
9.6239004 8.2752266 2.1042621
0.23991394 8.4488659 2.1031144
-8.7738037e-05 8.466382 2.1055994
0.23991393 8.4651575 2.1001174
4.1399136 8.462553 2.1028678
6.5949135 8.4988461 2.1012492
4.2549133 8.5041084 2.1018748
0.23991394 8.5144281 2.1029522
0.38991356 8.5225582 2.1011767
0.25196648 8.6102276 2.1012182
6.5949135 8.7465363 2.1080737
0.35809958 8.7602272 2.1054733
0.81412983 8.7602272 2.1098301
1.1217788 8.7602272 2.1038299
1.2915739 8.7602272 2.1018338
2.2524443 8.7602272 2.1017852
2.7682843 8.7602272 2.1013985
2.8755305 8.7602272 2.1061239
3.3962312 8.7602272 2.1047025
3.4216287 8.7602272 2.1027615
5.7449861 8.7602272 2.1017118
0.23991394 8.7767191 2.1075506
2.4876509 8.875227 2.1017218
2.7464881 8.875227 2.1002054
2.9740829 8.875227 2.1007152
3.9812205 8.875227 2.1021619
4.1399136 8.8734035 2.1045849
5.7174416 8.875227 2.1015518
4.1399136 8.9782505 2.1012678
14.67993 8.9802856 2.1009016
9.8099117 9.0347261 2.1005945
14.439928 9.0761576 2.107589
14.439928 9.1782007 2.1009707
10.049913 9.1968098 2.1032963
10.049913 9.250803 2.1072168
4.1399136 9.2645578 2.1064777
4.1399136 9.306942 2.1015263
-8.7738037e-05 9.3153286 2.1029639
4.2549133 9.4000216 2.1087434
14.439928 9.5576143 2.1021819
0.23991394 9.6052942 2.1035247
10.049913 9.6987104 2.108372
14.439928 9.7936325 2.1021485
10.049913 9.8542051 2.1046512
6.5019693 9.9752274 2.1065836
5.5799122 10.013371 2.1042504
14.439928 10.335218 2.1025059
6.4799137 10.415298 2.1094811
4.159133 10.475227 2.1003659
4.2157769 10.475227 2.1001587
4.231668 10.475227 2.1041017
9.8099117 10.480158 2.1075418
5.6455927 10.572727 2.1007147
9.8099117 10.58515 2.106499
14.67993 10.664144 2.1079073
3.2575152 10.690228 2.1090059
3.4279912 10.690228 2.1014974
3.5838687 10.690228 2.102036
5.6949139 10.698985 2.1032164
6.1082468 10.690228 2.1055279
6.4743605 10.690228 2.1042671
3.2549133 10.727394 2.1023302
5.6949139 10.758173 2.1094618
5.5799122 10.800924 2.1029472
14.439928 10.847572 2.1059976
3.2549133 10.86202 2.1060059
10.049913 10.867185 2.1017518
3.1399136 10.943115 2.1041987
5.7801995 10.990227 2.1034288
5.897254 10.990227 2.1088505
6.2639928 10.990227 2.1090527
3.1399136 11.116062 2.1007242
10.049913 11.364372 2.1011403
10.049913 11.43335 2.1065681
-8.7738037e-05 11.508843 2.1097836
6.5949135 11.611747 2.1033175
6.5949135 11.712449 2.1020298
3.2549133 11.810727 2.1061108
6.4799137 12.043201 2.1062233
-8.7738037e-05 12.065312 2.1043401
3.1399136 12.190214 2.1038475
9.8099117 12.296495 2.1044931
0.23991394 12.447997 2.1072702
-8.7738037e-05 12.574184 2.1024642
6.5949135 12.586588 2.1048896
6.5949135 12.631985 2.1082919
10.049913 12.631004 2.1056309
0.0029017802 12.734343 2.1037309
0.016306281 12.734343 2.1052885
0.41309342 12.734343 2.1076434
0.53360707 12.734343 2.1089859
1.0437669 12.734343 2.1029496
2.9765909 12.734343 2.1081858
2.9890549 12.734343 2.1031704
3.1654313 12.734343 2.1024027
4.2682018 12.734343 2.1014969
4.4926033 12.734343 2.1073668
6.5012712 12.734343 2.1077454
1.4999123 12.82946 2.1036177
5.3469124 12.957232 2.1001062
3.8556066 12.974342 2.1002681
3.9244335 12.974342 2.1043818
9.7990761 12.974342 2.1089911
10.049913 13.464581 2.1069868
9.8099117 13.566642 2.106477
9.8099117 13.670849 2.1058192
10.076832 13.810228 2.1095645
10.484919 13.887558 2.1080847
10.002371 14.050228 2.1005669
14.398361 14.050228 2.1025691
14.651594 14.050228 2.1090055
0.47269085 0.0052280426 2.1139197
3.1270521 0.0052280426 2.1151531
3.7292535 0.0052280426 2.1196599
5.1349316 0.0052280426 2.1178889
5.7938871 0.0052280426 2.1161103
6.0141993 0.0052280426 2.1164627
6.1250305 0.0052280426 2.1116564
8.6712675 0.0052280426 2.1177907
9.8080549 0.0052280426 2.1100307
10.525035 0.0052280426 2.1175938
0.71241379 0.04430427 2.1193104
3.8949127 0.048536927 2.1115875
0.71241379 0.07724373 2.113466
6.8999138 0.10191052 2.114011
4.9449139 0.15468599 2.1130657
11.419928 0.15304433 2.113812
0.71241379 0.21716192 2.1100802
11.419928 0.22388588 2.110486
0.6009776 0.24022675 2.1190715
3.2187517 0.24022675 2.1183484
4.9832487 0.24022675 2.1142855
5.9397111 0.24022675 2.119494
8.5313368 0.24022675 2.1105742
8.9259224 0.24022675 2.1135888
9.5233307 0.24022675 2.1131415
10.493989 0.24022675 2.1105075
11.206556 0.24022675 2.1101933
11.321613 0.24022675 2.1137383
14.679931 0.32671952 2.114301
0.23991394 0.37963051 2.118072
0.23991394 0.39013004 2.1124301
6.0524139 0.49635822 2.1136899
6.0524139 0.60358328 2.1100974
6.2524128 0.67191386 2.1164842
6.0524139 0.68848884 2.1125801
10.049913 0.73837042 2.118047
3.2199135 0.80308652 2.1155429
3.1399136 0.8697679 2.1121948
0.22083913 1.000227 2.1141949
14.67993 1.0283481 2.1154137
3.1399136 1.1543216 2.1196189
3.1399136 1.2706764 2.1133833
10.049913 1.2947077 2.1186347
0.056290653 1.3452282 2.112751
14.439928 1.4163566 2.1152763
3.1399136 1.5644987 2.11426
14.67993 1.7242516 2.1158752
6.0949135 1.7688526 2.1148105
3.1399136 1.9382221 2.1114175
14.439928 2.0637262 2.1151869
6.0949135 2.098099 2.1118915
6.0949135 2.2305317 2.1121027
3.1399136 2.272023 2.1175287
3.2199135 2.2711277 2.1136181
10.049913 2.3173523 2.1128318
0.017801577 2.3752272 2.1140132
-8.7738037e-05 2.4328613 2.1138093
3.1399136 2.5516644 2.1129384
2.8999138 2.6535361 2.1160092
14.439928 2.6504903 2.1159246
6.2099133 2.6698229 2.1177881
6.0949135 2.8132808 2.1188121
3.2199135 2.8780353 2.1158953
3.1399136 3.1053934 2.113868
-8.7738037e-05 3.1692011 2.1197946
6.2099133 3.2812586 2.1169057
3.2199135 3.5030718 2.1163406
10.049913 3.5795722 2.1173468
3.2199135 3.5836883 2.1166186
5.4887967 3.6102276 2.1182618
6.3629618 3.6102276 2.118356
6.8783312 3.6102276 2.1130421
6.9007688 3.6102276 2.1119387
8.1013565 3.6102276 2.1185567
8.3234997 3.6102276 2.1129897
8.6728458 3.6102276 2.1125636
9.9126415 3.6102276 2.112608
0.23991396 3.7245293 2.1125541
4.2379041 3.7252274 2.1151116
5.9329214 3.7252274 2.1129725
5.9940443 3.7252274 2.1156168
6.6869364 3.7252274 2.1143332
8.0381565 3.7252274 2.1129465
8.4773054 3.7252274 2.1115749
9.8331089 3.7252274 2.1186657
0.23991394 4.0847316 2.1179898
3.1399136 4.1147723 2.1103275
3.2199135 4.6647596 2.1143928
0.44431478 4.6802273 2.1182752
0.88847035 4.6802273 2.1131349
0.91092193 4.6802273 2.1181509
2.5992115 4.6802273 2.1139479
3.2199135 4.7343383 2.1165709
0.23991394 4.7523899 2.1197677
0.23991394 4.8110666 2.1141539
5.8115072 4.8252277 2.116318
6.0599642 4.8252277 2.112607
6.4020004 4.8252277 2.1143146
8.1402149 4.8252277 2.1135161
8.7346191 4.8252277 2.1199017
8.9012947 4.8252277 2.1137633
9.0296497 4.8252277 2.1144702
0.14386356 4.880228 2.1182499
0.29074979 4.880228 2.1178744
0.79275799 4.880228 2.114229
0.89449799 4.880228 2.11251
5.6017184 4.9402275 2.1155763
6.0106821 4.9402275 2.1160212
6.8194561 4.9402275 2.1138034
7.2301645 4.9402275 2.1124766
7.3258791 4.9402275 2.118432
3.0107541 4.9552269 2.1199415
9.2349148 4.9755964 2.1141176
5.9999123 4.9999123 2.1104856
4.684927 5.0231833 2.1150174
9.2349148 5.0878801 2.117434
6.3499126 5.2915497 2.1197555
6.4649124 5.2912264 2.1105587
9.3499126 5.4647474 2.1121738
6.3499126 5.4769411 2.1125493
14.439928 5.566823 2.1107843
14.439928 5.5712042 2.1183424
5.9577103 5.6202278 2.1100588
5.9727268 5.6202278 2.1198137
5.9999123 5.6609521 2.1150064
9.2349148 5.6781855 2.1114454
6.3499126 5.6937513 2.1179457
5.8849125 5.8066082 2.1198003
6.4649124 5.9354382 2.1171455
6.4649124 5.9433665 2.1118431
4.684927 5.9761052 2.1191547
0.91936183 5.9952283 2.1126139
0.95991325 6.0098839 2.1154761
5.9999123 6.041398 2.1132517
9.3499126 6.064033 2.1156571
0.64861256 6.0802269 2.1117749
0.84460175 6.0802269 2.117044
4.5699272 6.1054611 2.1105185
2.8999138 6.1234808 2.1118808
14.67993 6.1224403 2.1198015
1.4249287 6.1436658 2.1127622
5.8849125 6.172008 2.118679
3.1399136 6.1924 2.1141629
4.684927 6.1902704 2.1163507
0.74155259 6.3202267 2.1152334
1.1058421 6.3202267 2.1135161
1.2431965 6.3202267 2.1186929
2.8999138 6.3420601 2.1124175
0.23991393 6.3654523 2.1194301
1.3367895 6.4002266 2.1167276
1.3449287 6.4031248 2.1122303
1.4085294 6.4002266 2.1102548
9.2349148 6.4955187 2.1145782
9.3499117 6.5251422 2.1110182
3.1399136 6.5304818 2.1106088
4.5699272 6.6075196 2.1123452
0.23991394 6.6187105 2.112772
6.4649124 6.6315393 2.1192305
1.7015891 6.6402283 2.113338
3.3880773 6.6402283 2.1185107
4.9195557 6.6402283 2.1127243
5.9991283 6.6402283 2.1127419
7.9264903 6.6402283 2.1159279
9.3842764 6.6402283 2.1107435
9.7245827 6.6402283 2.1104422
10.42153 6.6402283 2.1134307
10.447803 6.6402283 2.1102083
10.472964 6.6402283 2.1122689
10.7429 6.6402283 2.1174703
11.533463 6.6402283 2.1162763
11.941639 6.6402283 2.1153429
11.975636 6.6402278 2.1171188
13.184711 6.6402283 2.1157203
13.727372 6.6402283 2.1143689
13.887986 6.6402283 2.1105435
14.005662 6.6402283 2.1103163
14.386285 6.6402283 2.1164455
1.6649284 6.810216 2.1175039
1.3449287 6.825942 2.1151192
1.6821101 6.880228 2.1115532
3.267441 6.880228 2.1143358
3.4920235 6.880228 2.1198549
3.9246271 6.880228 2.1190486
4.7947397 6.880228 2.1141279
5.1795821 6.880228 2.1174374
6.1083879 6.880228 2.1122863
7.0172701 6.880228 2.1124907
7.1073408 6.880228 2.1197791
7.882298 6.880228 2.1105027
9.7822943 6.880228 2.119113
10.052649 6.880228 2.1105077
10.081012 6.880228 2.1184652
10.175143 6.880228 2.1140881
11.689616 6.880228 2.1165709
12.671909 6.880228 2.1123881
13.190761 6.880228 2.1109211
14.054461 6.880228 2.115905
14.67993 7.3487358 2.1176705
-8.7738037e-05 7.6582804 2.1133785
0.23991394 7.8515749 2.1189983
0.23991394 8.1042957 2.1106863
5.5665941 8.1602268 2.1168098
6.6111126 8.1602268 2.1173105
7.5826054 8.1602268 2.1189842
7.7176142 8.1602268 2.1134675
7.7253056 8.1602268 2.1116586
7.8310843 8.1602268 2.1155527
8.6940384 8.1602268 2.1119878
9.9267769 8.1602268 2.1112704
6.6417332 8.2752266 2.1102431
6.7356949 8.2752266 2.1138976
7.6386528 8.2752266 2.1174726
9.0612459 8.2752266 2.1156309
9.1244621 8.2752266 2.117909
9.4209204 8.2752266 2.1188302
9.5013561 8.2752266 2.1142259
9.7520514 8.2752266 2.1142907
9.8666201 8.2752266 2.1107678
9.9976692 8.2752266 2.1175759
6.4799137 8.3201952 2.1118448
6.4799137 8.364603 2.1154633
1.4599285 8.3795595 2.1110752
5.4549122 8.5383062 2.1140893
9.8099117 8.5746946 2.1111326
0.38991356 8.631341 2.1178999
6.5949135 8.6414528 2.1188188
1.3449286 8.6639366 2.1140118
9.8099117 8.6694994 2.1171098
14.543293 8.7002277 2.1168861
14.67993 8.7571859 2.1172609
1.2617841 8.7602272 2.1129334
1.4065754 8.7602272 2.11906
1.6538219 8.7602272 2.1147676
1.9235691 8.7602272 2.1103652
3.4467988 8.7602272 2.1117377
3.6400549 8.7602272 2.1151793
6.2589216 8.7602272 2.1109352
6.4606218 8.7602272 2.113898
6.5949135 8.766551 2.1197727
4.1399136 8.7807646 2.1114814
0.96895409 8.875227 2.1116281
1.2713171 8.875227 2.1148734
1.6142013 8.875227 2.1149549
2.7199962 8.875227 2.1107697
3.0323083 8.875227 2.1107645
3.5480349 8.875227 2.1121888
3.9467473 8.875227 2.118397
6.1168532 8.875227 2.1134572
6.5706511 8.9752274 2.116569
14.67993 9.0830154 2.1155944
0.23991394 9.2045193 2.1166925
0.23991394 9.2515659 2.111325
-8.7738037e-05 9.516058 2.1198983
14.67993 9.5694332 2.1160607
14.67993 9.6141624 2.1128597
14.439928 9.6435843 2.1193461
9.8099117 9.8398285 2.1176174
6.5736127 9.875227 2.1189563
5.6949139 10.107583 2.1136541
4.2115974 10.475227 2.1166539
14.67993 10.517761 2.1172647
3.7993741 10.575228 2.113282
4.035181 10.575228 2.1124015
-8.7738037e-05 10.581395 2.1170621
3.2549133 10.586499 2.1167052
5.5799122 10.607883 2.1163697
10.049913 10.601047 2.1124051
6.5949135 10.629452 2.1170917
3.2751193 10.690228 2.118264
5.3542976 10.690228 2.110806
6.5479965 10.690228 2.1163383
5.6949139 10.853756 2.1139834
5.6949139 10.900078 2.1150029
14.581306 10.960228 2.1193628
5.8882794 10.990227 2.1155195
-8.7738037e-05 11.047497 2.1120019
3.2549133 11.089394 2.1182585
5.9209757 11.105228 2.1186523
3.2549133 11.132455 2.1137784
0.23991396 11.163552 2.1199696
6.5949135 11.16015 2.1198566
3.2549133 11.209893 2.113297
6.5949135 11.369582 2.1133299
-8.7738037e-05 11.431649 2.1123791
0.23991394 11.588427 2.1118014
6.5949135 11.686298 2.1126494
6.5949135 11.703698 2.119837
0.23991394 11.850021 2.1146603
9.8099117 11.87805 2.1168468
6.5949135 11.888854 2.1165545
3.1399136 11.942879 2.1152878
6.4799137 12.082431 2.1141624
10.049913 12.175852 2.1122582
-8.7738037e-05 12.23632 2.1145384
6.5949135 12.488647 2.1132388
9.8099108 12.520032 2.1119335
6.5949135 12.667562 2.1104891
3.2549133 12.690588 2.1188602
0.42809215 12.734343 2.1170194
0.54677171 12.734343 2.1155777
1.0364755 12.734343 2.1179931
2.9248261 12.734343 2.1145487
3.2296731 12.734343 2.116519
3.6778281 12.734343 2.1177473
4.1533895 12.734343 2.1128187
4.5252337 12.734343 2.1157761
5.8768759 12.734343 2.117388
6.3530126 12.734343 2.110533
6.6642847 12.734342 2.116343
6.9104471 12.734343 2.1156034
9.1199131 12.737188 2.1104717
9.8099117 12.903961 2.1170809
5.3469124 12.958552 2.1126623
1.3108696 12.974342 2.1151578
3.0079236 12.974342 2.1185901
6.4932408 12.974342 2.1142197
7.0653067 12.974342 2.1114113
10.049913 13.119686 2.1127806
10.049913 13.733589 2.1119006
10.049913 13.741041 2.1108296
10.166756 13.810228 2.1172993
14.143383 13.810228 2.1107125
14.439928 13.815982 2.1137099
14.439928 13.874368 2.1129436
10.484919 13.892638 2.1181939
14.439928 13.908518 2.1102605
10.049913 13.990398 2.1142848
10.049913 14.003713 2.1159184
14.111691 14.050228 2.1121576
14.525055 14.050228 2.1164465
0.0096822372 0.00022697447 2.1285017
5.1033564 0.0052280426 2.1236548
5.2230554 0.0052280426 2.1282992
6.4629159 0.0052280426 2.1290488
8.5387163 0.0052280426 2.1287975
10.299418 0.0052280426 2.1247694
11.113575 0.0052280426 2.1223056
-8.7738037e-05 0.078960419 2.1262558
14.67993 0.21846154 2.1224658
2.9255955 0.24022675 2.1226447
3.1399136 0.24879497 2.1223404
3.1932611 0.24022675 2.121665
3.4571373 0.24022675 2.1290874
5.0042586 0.24022675 2.1229286
5.4990444 0.24022675 2.1273482
5.8797531 0.24022675 2.1289625
6.4811954 0.24022675 2.1287961
6.6325521 0.24022675 2.1238296
6.6603279 0.24022675 2.1257589
8.4964867 0.24022675 2.121274
10.761596 0.24022675 2.1278946
6.0524139 0.26588833 2.1275544
2.8999138 0.27918956 2.1256657
6.0524139 0.36885351 2.1255231
2.8999138 0.43860802 2.1267815
-8.7738037e-05 0.52516383 2.1249654
9.8099117 0.56939507 2.1230233
9.8099117 0.57583231 2.1280568
14.439928 0.59843409 2.1276555
3.1399136 0.65166044 2.122344
3.2199135 0.67105943 2.124824
9.8099117 0.67896259 2.1233203
3.2199135 0.72002673 2.1202433
14.439928 0.79686314 2.1284673
2.8999138 0.81748009 2.1264966
9.8099117 0.93504471 2.1241405
3.1399136 0.98590183 2.1284821
3.1399136 0.99897528 2.1212375
3.2199135 1.0655775 2.1293235
6.0524144 1.232573 2.1224556
0.017986843 1.2402267 2.1276634
3.1399136 1.3509748 2.121202
3.2199135 1.4590011 2.1251662
2.8999138 1.4855709 2.1274049
10.049913 1.4842381 2.1296492
9.8099117 1.6939262 2.1299906
14.439928 1.7255328 2.1208873
2.8999138 1.7345301 2.1213021
3.2199135 1.7819883 2.1297026
2.8999138 1.8362663 2.1236076
14.67993 1.9881684 2.1273646
3.1399136 2.0087733 2.124022
6.0949135 2.1193967 2.1295867
10.049913 2.1835055 2.1244211
3.1399136 2.2073531 2.1227007
6.0949135 2.2706289 2.1293058
14.439928 2.2817554 2.1215174
14.439928 2.3616261 2.1278424
10.049913 2.3715603 2.1261654
14.67993 2.3764622 2.1293473
2.8999138 2.4744558 2.1234269
14.439929 2.4823103 2.1273208
6.0949135 2.5778155 2.1222801
6.0949135 2.6743209 2.1288114
2.8999138 2.8509872 2.1299882
6.0949135 3.1968362 2.1268678
2.8999138 3.2009106 2.121896
10.049913 3.2946036 2.1268864
10.049913 3.3492851 2.1259062
3.1399136 3.4434938 2.1295288
6.0949135 3.4413335 2.1243269
3.2199135 3.5054438 2.1297421
3.6216435 3.6102276 2.1233406
3.7572298 3.6102276 2.1242564
4.2256074 3.6102276 2.1223488
5.4411464 3.6102276 2.1285269
6.0953712 3.6102276 2.1257482
6.5594516 3.6102276 2.1230743
6.6064835 3.6102276 2.1266775
9.4266891 3.6102276 2.1213918
9.829011 3.6102276 2.1299245
9.9790726 3.6102276 2.1262136
10.002664 3.6102276 2.127661
4.4099121 3.6286461 2.1201878
4.4099121 3.6846361 2.1266749
3.6516247 3.7252274 2.1224029
5.9780126 3.7252274 2.1261163
6.0710464 3.7252274 2.1217041
6.2291689 3.7252274 2.1299696
6.4206624 3.7252274 2.120007
8.2649088 3.7252274 2.1247849
9.5045547 3.7252276 2.12135
9.8203564 3.7252274 2.1274445
9.9251804 3.7252274 2.1278112
0.23991394 3.7725246 2.1235075
9.3499126 3.7701812 2.1221228
0.23991394 4.0063715 2.1233952
3.1399136 4.0298557 2.1220961
2.8999138 4.0593615 2.1212976
0.23991394 4.1253271 2.1259799
3.2199135 4.2908125 2.121006
3.1399136 4.4114461 2.1265705
0.26488784 4.6802273 2.1220517
0.51835573 4.6802273 2.1251707
0.69808662 4.6802273 2.1226213
0.96982026 4.6802273 2.1219468
1.510707 4.6802273 2.1278858
1.7780915 4.6802273 2.1248288
2.8668649 4.6802273 2.1203673
3.1399136 4.8243613 2.1223984
5.5759087 4.8252277 2.1235929
5.869029 4.8252277 2.1256795
6.5305624 4.8252277 2.1270547
7.2085795 4.8252277 2.1234012
9.0969992 4.8252277 2.1278102
0.2721695 4.880228 2.1241889
0.66307282 4.880228 2.1267252
1.2993319 4.880228 2.1252069
1.5536199 4.880228 2.1262875
1.7332555 4.880228 2.1229777
2.035253 4.880228 2.1296031
2.2043216 4.880228 2.1298833
2.2323642 4.880228 2.1222754
2.8904321 4.880228 2.1225712
4.5699272 4.9057627 2.1269784
9.2349148 4.901999 2.1258938
3.2199135 4.914537 2.1299524
4.684927 4.9334259 2.1240039
6.4355698 4.9402275 2.1290216
6.5415745 4.9402275 2.1280336
6.8897238 4.9402275 2.1258469
8.1787376 4.9402275 2.1256969
2.9159763 4.9552269 2.1245673
6.4649124 5.0440278 2.1247869
4.6260924 5.0752277 2.1256018
6.4649124 5.1250148 2.1278052
6.3499126 5.5161963 2.127326
6.3499126 5.5739813 2.1274333
14.439928 5.6135674 2.1236324
6.1415343 5.6202278 2.1257
6.3499126 5.625124 2.1240306
9.2349148 5.7934494 2.1274095
6.3499126 5.8518095 2.1237006
14.439928 5.8625407 2.1294405
0.87362349 5.9952278 2.1224554
0.35518682 6.0802269 2.1288354
1.3431993 6.0802269 2.127908
1.5408328 6.0802269 2.1296217
3.1399136 6.1040187 2.1206894
14.439928 6.1219363 2.120482
3.1399136 6.132514 2.1284652
3.1399136 6.1855259 2.1207182
14.439928 6.1943469 2.1263227
6.4649124 6.2271895 2.1210785
3.1399136 6.3117762 2.1209385
0.27972299 6.3202267 2.1214817
0.46777788 6.3202267 2.1220436
0.80465877 6.3202267 2.1245067
0.99004191 6.3202267 2.1213343
3.2199135 6.3559003 2.120796
1.6649286 6.3684697 2.1241007
0.3825101 6.4002266 2.1271968
6.3499126 6.401957 2.1271076
9.2349148 6.4390311 2.1244628
1.4249287 6.4640388 2.1275246
4.5699272 6.4642353 2.1258016
0.23991394 6.4708586 2.129746
9.3499117 6.5785112 2.1229308
1.6649284 6.5887251 2.1251607
5.9999123 6.6219058 2.1205513
6.4649124 6.639883 2.1202159
2.9391332 6.6402283 2.1287105
4.5826693 6.6402283 2.1227748
5.591979 6.6402283 2.1249795
7.5232291 6.6402283 2.1229057
7.5325603 6.6402283 2.1200118
7.7759385 6.6402283 2.1263895
7.9752302 6.6402283 2.1278872
8.3049393 6.6402283 2.1214843
9.351676 6.6402283 2.1230574
10.581218 6.6402283 2.1244059
11.148669 6.6402283 2.1229558
11.938302 6.6402283 2.121568
12.2623 6.6402283 2.1287746
12.319859 6.6402283 2.1252098
13.771057 6.6402283 2.1211693
13.854918 6.6402283 2.1275177
1.4249287 6.7236199 2.1205957
3.0145235 6.880228 2.1267226
3.1975715 6.880228 2.1229496
4.4214578 6.880228 2.1237144
5.6756582 6.880228 2.1269341
8.0854387 6.880228 2.1213257
8.9758797 6.880228 2.1243372
9.1336346 6.880228 2.1222491
11.961955 6.880228 2.1278527
12.445919 6.880228 2.1249387
12.613716 6.8802276 2.1200731
12.720955 6.880228 2.1243997
12.944016 6.880228 2.1297343
13.73437 6.880228 2.1256225
14.408669 6.880228 2.1293507
1.4098514 6.960228 2.1200771
-8.7738037e-05 7.4229383 2.1222587
0.23991394 7.8530765 2.1212401
7.4460106 8.1602268 2.1276767
7.8434782 8.1602268 2.1242788
8.5187473 8.1602268 2.1218297
8.7174711 8.1602268 2.1265461
9.6839066 8.1602268 2.1258914
4.2549133 8.218873 2.1206608
6.6650653 8.2752266 2.1282701
6.7448173 8.2752266 2.1297829
9.3975496 8.2752266 2.1259489
-8.7738037e-05 8.4157963 2.128886
4.1399136 8.441103 2.1289413
9.8099117 8.4726181 2.1254733
0.23991394 8.5866413 2.1268852
5.5699139 8.6377411 2.1263967
10.049913 8.6644974 2.1214414
1.3449287 8.7202845 2.1242728
5.5699139 8.7404032 2.1216054
0.38991353 8.755806 2.1284175
1.3449287 8.7521191 2.1261351
0.50695741 8.7602272 2.1236067
0.71609133 8.7602272 2.1246829
2.2640817 8.7602272 2.1229668
2.4508781 8.7602272 2.1273887
2.8831954 8.7602272 2.1257243
6.3436108 8.7602272 2.1266978
10.049913 8.7606316 2.1235425
4.1399136 8.8120928 2.1282299
0.88529426 8.875227 2.126739
0.9516257 8.875227 2.1222961
1.6009052 8.875227 2.1200175
3.6296995 8.875227 2.125221
4.0726881 8.875227 2.127012
6.448657 8.875227 2.121686
10.049913 8.88554 2.1266339
6.5949135 8.934165 2.1222806
9.8099117 9.1369085 2.1233382
10.049913 9.2009811 2.1225479
0.23991394 9.3439445 2.1250868
10.049913 9.3421726 2.1207435
14.439928 9.4993591 2.1266298
0.23991394 9.501646 2.1276941
9.8099117 9.5684929 2.1208942
4.1399136 9.5738449 2.1229312
4.2227364 9.5752277 2.1211977
-8.7738037e-05 9.7376041 2.1254573
6.4955797 9.875227 2.1286209
9.8099117 9.8903236 2.1274972
-8.7738037e-05 10.022979 2.1258349
6.5949135 10.047957 2.1225967
10.049913 10.083519 2.1222274
0.23991394 10.112126 2.1296406
10.049913 10.289125 2.1244903
14.67993 10.299967 2.1262219
-8.7738037e-05 10.577985 2.1275029
3.8840332 10.575228 2.1220315
5.1706457 10.575228 2.1258922
5.4270229 10.575228 2.12362
5.7863841 10.570227 2.1281738
6.4799137 10.603024 2.1286817
10.049913 10.60047 2.1294136
0.23991394 10.668624 2.12427
3.3508124 10.690228 2.1253526
3.6775928 10.690228 2.1248536
3.8889089 10.690228 2.1271229
4.1388383 10.690228 2.1298079
6.5704517 10.690228 2.1203232
14.67993 10.704286 2.1258547
6.4799132 10.724438 2.1282337
9.8099117 10.763767 2.1260846
6.4799137 10.930875 2.1243315
6.4799137 10.972796 2.1222582
6.2206707 10.990227 2.1292338
9.8099117 11.056868 2.1286113
5.904717 11.105228 2.129257
10.049913 11.243594 2.1263068
6.5949135 11.361099 2.1283686
6.4799137 11.462534 2.1299405
6.4799137 11.491344 2.1252322
9.8099117 11.545055 2.1225703
0.23991394 11.609282 2.1205328
3.2549133 11.605198 2.1241422
3.1399136 11.714151 2.1298108
6.5949135 11.767602 2.1294305
3.1399136 11.85148 2.1246819
3.1399133 11.926315 2.1209114
-8.7738037e-05 11.993917 2.1279275
-8.7738037e-05 12.443007 2.1202993
3.1399136 12.452553 2.1205022
10.049913 12.553616 2.1262953
0.23991394 12.648787 2.121784
0.20755297 12.734343 2.1242118
1.4754852 12.734343 2.1226461
2.8834794 12.734343 2.1285067
3.2084746 12.734343 2.1278925
3.2267408 12.734343 2.125577
3.6205144 12.734343 2.128258
4.1063318 12.734343 2.1200686
4.2498903 12.734343 2.1218855
5.5103474 12.734343 2.1243877
6.2249599 12.734343 2.1275082
1.4999123 12.752329 2.1264024
4.6269131 12.864305 2.1282237
0.35820943 12.974342 2.1259453
0.55054778 12.974342 2.1251688
3.0597801 12.974342 2.1249287
3.1816838 12.974342 2.1217711
5.7835979 12.974342 2.129122
5.8254309 12.974343 2.1233444
6.3508725 12.974342 2.1282401
9.5085497 12.974342 2.1223459
9.7495699 12.974342 2.1281266
10.049913 13.406488 2.1204042
14.67993 13.690787 2.1292889
14.092175 13.810228 2.1237478
14.439928 13.869175 2.1219788
10.484919 13.931704 2.1214638
14.004919 13.936205 2.1296456
14.439927 14.03093 2.1237042
9.846961 14.050228 2.1225994
14.047422 14.050228 2.1263752
14.429117 14.050228 2.1230879
2.8619292 0.0052280426 2.1351688
3.7624617 0.0052280426 2.1358261
3.7792482 0.0052280426 2.1363595
3.7930272 0.0052280426 2.1351817
5.2720242 0.0052280426 2.1336379
5.750566 0.0052280426 2.1386728
6.7951708 0.0052280426 2.1393666
8.1547842 0.0052280426 2.1392446
9.2877388 0.0052280426 2.1348205
9.3081131 0.0052280426 2.1345017
9.5841351 0.0052280426 2.1302207
9.7632017 0.0052280426 2.1310735
14.478404 0.0052280426 2.1320376
0.71241379 0.028580565 2.1349311
14.439928 0.026923338 2.1317177
6.8999138 0.052598819 2.1388509
3.8949127 0.069403537 2.1306672
14.439928 0.066324912 2.1318436
2.7335899 0.24022675 2.139575
5.6747651 0.24022675 2.1330786
6.0852013 0.24022675 2.1388159
6.1829557 0.24022675 2.1300459
9.6459131 0.24022675 2.1348124
9.8674393 0.24022675 2.1393039
10.540398 0.24022675 2.1338544
10.664783 0.24022675 2.1304631
-8.7738037e-05 0.30875564 2.1345217
6.2524128 0.32843602 2.1367886
0.23991394 0.34203809 2.1349125
3.2199135 0.37188125 2.1390545
14.439929 0.43153375 2.1324246
3.1399136 0.52615464 2.1323099
-8.7738037e-05 0.59296447 2.1363845
3.1399136 0.60166365 2.1345246
9.8099117 0.60940289 2.1327586
14.67993 0.62118435 2.1309166
6.2524128 0.82516992 2.1396203
10.049913 0.87845874 2.1322408
6.2524128 0.88803387 2.1316068
0.23991394 0.90707088 2.1312597
-8.7738037e-05 0.93011063 2.1399498
2.8999138 0.93017435 2.1363807
3.2199135 0.97426987 2.1359797
14.67993 1.0332937 2.1335182
0.078475662 1.2402267 2.1338978
0.01273291 1.348376 2.1350002
6.0949135 1.3778167 2.1394358
0.20959873 1.4296231 2.135
0.15389834 1.4584005 2.1349998
0.18761675 1.4861296 2.135
10.049913 1.4980667 2.1399159
0.014669265 1.5728302 2.135
0.1635242 1.5723916 2.135
0.089450099 1.5998764 2.1349998
0.21919008 1.6068426 2.135
3.1399136 1.7087812 2.1381474
0.10721809 1.7336233 2.135
6.0949135 1.7662597 2.1328666
0.067909352 1.7886724 2.135
0.073257044 1.79146 2.135
0.091175914 1.7988662 2.135
3.1399136 1.7928282 2.1318104
3.2199135 1.7924724 2.137167
3.2199135 1.8073243 2.1332183
0.11720622 1.8175856 2.135
10.049913 1.8183095 2.1373773
3.1399136 1.8293631 2.1331308
0.10713997 1.8444082 2.135
0.13885464 1.8490806 2.135
0.14907135 1.8660874 2.135
6.0949135 1.8639339 2.135004
0.15389451 1.894896 2.135
0.05511855 1.9256587 2.135
0.17541437 1.9292212 2.135
0.057311136 1.9422071 2.135
0.12297976 1.9461055 2.135
0.10840118 1.955977 2.135
0.11107783 1.9563849 2.1350002
3.1399136 1.9523962 2.1311076
9.8099117 1.954425 2.1365705
3.2199135 1.9693377 2.1386642
14.439928 1.9917507 2.1392908
0.13692467 2.0060761 2.135
0.21561909 2.0062757 2.135
2.8999138 2.0433261 2.13041
0.15015654 2.077364 2.135
2.8999138 2.0776858 2.1345742
3.1399136 2.1162302 2.1321793
0.0418799 2.1269796 2.135
0.071534395 2.12834 2.135
0.067074515 2.1441498 2.135
0.21286251 2.1444783 2.1349998
0.1240521 2.1510763 2.135
9.8099117 2.1581647 2.1321406
0.093761139 2.1644576 2.135
0.21572578 2.1720061 2.1349998
3.2199135 2.1824677 2.1312749
0.14162402 2.2096994 2.1349998
0.1593464 2.2079778 2.135
0.17587119 2.2294149 2.135
3.1399136 2.222405 2.1322615
0.15255021 2.2368941 2.135
3.1399136 2.2321713 2.1318712
6.0949135 2.2608211 2.1379025
14.67993 2.2818582 2.1317806
0.070168719 2.3198662 2.135
0.028069634 2.3337996 2.135
0.21835952 2.3329101 2.135
0.20463401 2.3597438 2.135
10.049913 2.7830107 2.1328738
14.67993 2.7868426 2.1379001
10.049913 2.9374242 2.1398516
0.23991394 3.1050868 2.1343479
3.2199135 3.121671 2.139497
6.0949135 3.1471374 2.1344273
2.8999138 3.1511543 2.1393299
6.2099133 3.179966 2.1339707
2.8999138 3.2566805 2.1360202
3.1399133 3.3374639 2.1317859
10.049913 3.4938898 2.1330895
9.8099117 3.5620868 2.1371291
3.1978281 3.6102276 2.1363606
4.2589717 3.6102276 2.1392896
6.1186075 3.6102276 2.1312847
9.6072731 3.6102276 2.1375625
9.9270391 3.6102276 2.1347609
5.3639612 3.7252274 2.1327555
5.7650509 3.7252274 2.1383584
7.9392591 3.7252274 2.1387854
8.1259117 3.7252274 2.132683
9.6761532 3.7252276 2.1343246
9.7266073 3.7252274 2.1315041
9.9985924 3.7252276 2.1393414
2.8999138 3.799346 2.1352992
0.23991394 3.8913925 2.1396406
3.1399136 4.020565 2.1355495
3.1399136 4.116477 2.1325579
3.2199135 4.1102114 2.1390285
3.1399136 4.1233792 2.135217
3.1399136 4.277597 2.1320224
3.1399136 4.300756 2.1308727
-8.7738044e-05 4.480021 2.1354706
2.8999138 4.6155291 2.1391885
0.23991394 4.6792574 2.1330729
1.7555984 4.6802273 2.1342721
0.23991394 4.7507329 2.1368127
-8.7738037e-05 4.7764487 2.1335177
-8.7738037e-05 4.8088884 2.1328964
5.4495649 4.8252277 2.1349125
6.247148 4.8252277 2.1354227
8.1376295 4.8252277 2.1355243
9.0308762 4.8252277 2.1383495
0.73058313 4.880228 2.1312745
1.59593 4.880228 2.1397481
2.3435857 4.880228 2.1312814
2.7077601 4.880228 2.1347437
6.4646688 4.9402275 2.1370282
8.91008 4.9402275 2.1366229
3.0409527 4.9552274 2.1350949
0.89711279 4.9652271 2.1323733
4.5699272 4.9630542 2.1398258
9.2349148 4.9872561 2.1322064
6.4649119 5.1229768 2.1309593
9.3499126 5.1451702 2.1391377
9.2349148 5.4040513 2.1376886
6.0723786 5.6202278 2.1375108
14.439928 5.6471176 2.1355131
6.2669845 5.7402267 2.1352389
14.439928 5.8048058 2.1303668
14.67993 5.9530659 2.1302311
3.110038 5.9852276 2.1340289
4.5699272 6.0358844 2.1391833
14.67993 6.0528665 2.1388121
0.57979929 6.0802269 2.1373072
1.0542862 6.0802269 2.1322229
1.2470469 6.0802269 2.1340387
6.3499126 6.1350975 2.1320112
9.2349148 6.136961 2.139667
6.3499126 6.2089176 2.1340094
3.1399136 6.2544327 2.1389115
1.4249285 6.2639198 2.1334214
3.1399136 6.2659779 2.1311285
0.60034758 6.3202267 2.1325066
1.3738233 6.3202267 2.1319659
0.23991396 6.3435345 2.130033
1.2796532 6.4002266 2.1353478
1.3488137 6.4002266 2.137362
3.1399136 6.5774264 2.1308186
4.3069091 6.6402283 2.1341734
5.1859207 6.6402283 2.1328616
5.3527908 6.6402283 2.1352496
5.5303173 6.6402278 2.1357987
6.8018975 6.6402283 2.1301668
7.2599983 6.6402283 2.137377
8.6803551 6.6402283 2.1327634
8.7893753 6.6402283 2.1314993
9.3332796 6.6402283 2.1329839
9.4922256 6.6402283 2.1373377
12.178981 6.6402283 2.1328998
12.793088 6.6402283 2.1369128
13.976638 6.6402283 2.1316416
1.7649136 6.6873245 2.130434
1.7649136 6.7118382 2.1367853
1.4249288 6.8078456 2.1326549
14.67993 6.8017359 2.1344454
3.2885504 6.880228 2.1361592
3.9963989 6.880228 2.1355736
4.1103868 6.880228 2.1396306
5.0109439 6.880228 2.1398065
5.3032932 6.880228 2.1398063
5.8897696 6.8802285 2.1367576
6.385314 6.880228 2.1324942
7.2680764 6.880228 2.134177
9.2878675 6.880228 2.1321259
9.6520367 6.880228 2.1323373
9.688117 6.880228 2.1302288
10.027769 6.880228 2.1302733
10.463973 6.880228 2.1397445
11.231562 6.880228 2.1324606
11.916525 6.880228 2.13378
13.044079 6.880228 2.1338353
13.97234 6.8802285 2.1357036
1.3449287 6.93469 2.1312871
1.3449287 6.9496436 2.1318719
14.439928 7.0552583 2.1365583
-8.7738037e-05 7.0962977 2.1309736
14.439928 7.1130314 2.133182
1.3449287 7.1773005 2.131362
0.23991394 7.2586994 2.1342251
-8.7738044e-05 7.4499617 2.1399934
14.439928 7.4895716 2.1375082
14.439928 7.5285497 2.1348419
14.67993 7.5502453 2.1325507
5.4737067 8.1602268 2.1347532
6.9353952 8.1602268 2.1324425
7.4759989 8.1602268 2.1312416
7.534534 8.1602268 2.1327395
7.9079518 8.1602268 2.1360986
8.00984 8.1602268 2.1303141
8.8413181 8.1602268 2.138108
9.1212292 8.1602268 2.1304591
8.8607187 8.2752266 2.1316149
9.9086304 8.2752266 2.1376605
9.9219952 8.2752266 2.135396
6.4799137 8.3022881 2.1358061
6.4799137 8.3341007 2.1371896
1.4599285 8.3493786 2.1320701
4.2549133 8.4041586 2.1393573
0.23991394 8.4959307 2.1312835
0.4543114 8.4902267 2.1380808
0.38991356 8.5567608 2.1379449
6.4799137 8.5801945 2.1363981
0.28624827 8.6102276 2.1312029
0.38991356 8.6118727 2.1304331
-8.7738037e-05 8.7178288 2.1341848
0.38839376 8.7602272 2.1363094
0.42929727 8.7602272 2.1376703
1.2367226 8.7602272 2.1360576
2.0056016 8.7602272 2.1363494
2.4786704 8.7602272 2.1303463
3.6242945 8.7602272 2.1336792
3.7747643 8.7602272 2.1360741
6.1659155 8.7602272 2.1376505
6.2842197 8.7602272 2.1317587
6.5949135 8.7975454 2.1356168
10.049913 8.8233862 2.137538
0.45151103 8.875227 2.1355317
0.53908908 8.875227 2.1372194
3.9155998 8.875227 2.1314399
3.9346366 8.875227 2.1350749
5.6171703 8.875227 2.1394391
6.1670589 8.875227 2.1306129
14.439928 8.9560909 2.1356118
14.67993 9.0455523 2.1320896
10.049913 9.1289682 2.1351175
14.439928 9.1698647 2.1379373
14.67993 9.1923704 2.1303475
10.049913 9.7744198 2.1374915
5.6949139 9.9808731 2.130245
14.439928 9.9816761 2.1378734
5.7049122 10.03756 2.1368327
6.5724864 10.090227 2.1366878
9.8099117 10.1364 2.1326878
0.23991394 10.239601 2.1338992
0.23991394 10.288884 2.1328595
5.5799122 10.411486 2.1366723
14.439928 10.557112 2.1324358
3.1954103 10.575228 2.1362338
3.8331914 10.575228 2.1326513
3.8722548 10.575228 2.1396477
5.5799122 10.575921 2.1385767
5.9413462 10.570227 2.1343486
-8.7738037e-05 10.59341 2.1371217
3.2950304 10.690228 2.1321471
4.3507481 10.690228 2.1329553
5.3850894 10.690228 2.1314268
5.5799122 10.699598 2.1376586
5.5799122 10.86902 2.1320913
3.2549133 10.897661 2.1313765
9.8099117 10.961265 2.1388335
0.23991394 10.982623 2.1350846
6.4799137 10.981323 2.1380558
5.5962868 10.990227 2.1329093
5.6536245 10.990227 2.1364813
3.2549133 11.052036 2.1389124
0.23991394 11.140808 2.1360443
3.1399136 11.261744 2.1352868
10.049913 11.726684 2.1361575
9.8099117 11.732769 2.1370974
6.4799137 11.874146 2.1354604
0.23991394 11.996118 2.1365376
3.2549131 11.994271 2.133575
3.1399136 12.010115 2.136692
6.4799137 12.06818 2.1369257
6.5949135 12.140807 2.1326039
3.1399136 12.169977 2.139535
9.8099117 12.234716 2.1373017
9.8099117 12.26193 2.1382875
-8.7738037e-05 12.297524 2.1312554
9.8099117 12.295701 2.135973
10.049913 12.311331 2.1393535
-8.7738037e-05 12.365184 2.1353607
3.2549133 12.417555 2.1303906
6.594914 12.521013 2.1329432
3.2549133 12.586498 2.1316719
10.049913 12.662189 2.1342802
10.049913 12.687463 2.1348364
0.40431589 12.734343 2.1353564
0.47408712 12.734343 2.1382985
0.60658741 12.734343 2.1303177
1.1669034 12.734343 2.1346889
1.1987811 12.734343 2.1354928
3.782737 12.734343 2.134129
9.2774458 12.734343 2.1336765
9.7041435 12.734343 2.1320579
10.047034 12.734343 2.1338305
9.8099117 12.843329 2.1332719
9.1199131 12.870242 2.1312275
7.0999126 12.948298 2.139272
0.46549255 12.974342 2.1396515
3.4874246 12.974342 2.1369457
3.6005447 12.974342 2.1346262
3.7842362 12.974342 2.1317801
5.5910749 12.974342 2.1351302
6.621645 12.974342 2.1368418
6.9830165 12.974342 2.134969
9.3477087 12.974342 2.134691
10.049913 13.503691 2.1355257
9.8099117 13.519929 2.1395938
14.67993 13.762196 2.1377392
10.049913 13.805523 2.1332715
10.049913 13.882319 2.1331606
14.004919 14.03603 2.1351058
9.8099117 14.045707 2.1326039
10.031217 14.050228 2.1368914
14.308884 14.050228 2.1375904
0.13068156 0.00022697449 2.1433537
2.639308 0.0052280426 2.1446295
2.7229989 0.0052280426 2.1474583
6.3908958 0.0052280426 2.1480482
6.5473986 0.0052280426 2.1449773
9.0957298 0.0052280426 2.1491163
0.23991394 0.1421342 2.1424053
14.439928 0.17658569 2.1473274
0.71241379 0.22323152 2.1430881
0.6153807 0.24022675 2.1401744
3.8496766 0.24022675 2.1482136
6.5603533 0.24022675 2.1471717
8.1043596 0.24022675 2.1478269
8.6267815 0.24022675 2.1477847
8.7216969 0.24022675 2.1428528
9.7115536 0.24022675 2.1422553
10.298528 0.24022675 2.1471577
10.494734 0.24022675 2.1448977
10.947455 0.24022673 2.1485925
14.453341 0.24022675 2.1440239
14.637143 0.24022675 2.1409564
0.23991394 0.50999075 2.1431386
14.439928 0.67160857 2.14202
-8.7738037e-05 0.7156173 2.1470814
3.1399136 0.71385229 2.1404712
6.2524128 0.77358675 2.1448848
0.23991394 0.80555826 2.1427572
10.049913 0.85816431 2.1410379
0.23991394 0.97848225 2.1442275
10.049913 0.98470187 2.1454797
6.0524135 1.0908281 2.1440871
2.8999138 1.126658 2.1407979
6.0524139 1.2247062 2.1499376
10.049913 1.28316 2.1427121
2.8999138 1.3138162 2.1457865
9.8099117 1.4171312 2.1476426
0.23991393 1.439895 2.1478448
6.2099133 1.4607537 2.1405363
3.1399136 1.4809959 2.1441755
6.0949135 1.5186815 2.1430135
10.049913 1.6520385 2.1463804
14.67993 1.6513783 2.1408069
2.8999138 1.7011608 2.1419523
3.1399136 1.7279367 2.1411479
-8.7738037e-05 1.9274468 2.1449656
10.049913 2.0430839 2.1404142
3.1399136 2.0721927 2.1450109
14.67993 2.1123939 2.1402938
-8.7738037e-05 2.1646364 2.1475804
0.23991394 2.1795354 2.1411357
10.049913 2.2573307 2.1461484
6.0949135 2.2668781 2.1437805
-8.7738037e-05 2.286202 2.1485038
10.049913 2.294544 2.1437895
9.8099117 2.3935227 2.1474171
-8.7738037e-05 2.4014771 2.1471932
14.439928 2.4539564 2.1404006
9.8099117 2.5080547 2.1403885
0.23991394 2.557164 2.1479871
14.439928 2.5541155 2.1489046
14.67993 2.6675639 2.1413848
2.8999138 2.6996007 2.1402452
6.0949135 2.8004699 2.1453927
14.585762 2.8202267 2.1429124
0.23991394 2.8351302 2.1456525
2.8999138 2.8578253 2.1466999
3.2199135 2.8753862 2.1460094
3.1399136 2.923815 2.1416135
3.2199135 2.9204357 2.1476858
0.23991394 3.0771308 2.1494641
-8.7738037e-05 3.1740079 2.1458843
3.1399136 3.2734911 2.1407948
0.23991394 3.3628254 2.1482062
10.049913 3.392287 2.1494823
-8.7738037e-05 3.490097 2.1478081
9.8099117 3.5881662 2.1440945
-8.7738037e-05 3.5990484 2.146925
-8.7738037e-05 3.6057673 2.145649
7.9936094 3.6102276 2.1406403
8.0306597 3.6102273 2.1411166
8.2827158 3.6102276 2.1469605
8.4009724 3.6102276 2.1468103
8.6402245 3.6102276 2.1408997
9.1476479 3.6102276 2.1431808
9.5787935 3.6102278 2.1402435
9.8735256 3.6102276 2.148952
9.9289837 3.6102276 2.1417077
3.8398669 3.7252274 2.1429696
3.9827549 3.7252274 2.1477818
4.0279846 3.7252274 2.1413534
4.2556353 3.7252271 2.1496017
6.5450916 3.7252274 2.1462874
7.8494377 3.7252274 2.1472507
7.9555311 3.7252274 2.1489251
8.1158495 3.7252274 2.1464219
8.9219656 3.7252274 2.1445458
9.0615845 3.7252274 2.1459432
3.1399138 3.743495 2.1438911
9.2349148 3.7546198 2.1493587
9.2861166 3.7702274 2.1467652
3.1399136 3.8267043 2.1413126
3.1399136 3.9110723 2.1447983
3.2199135 3.9152215 2.1476679
0.23991394 4.0077152 2.1467502
2.8999138 4.009882 2.1483858
3.1399136 4.0072188 2.1452892
-8.7738037e-05 4.0962024 2.1497681
3.1399133 4.1082578 2.1482656
3.1399136 4.1752052 2.147788
3.2199135 4.2322493 2.1470075
-8.7738037e-05 4.2613983 2.1415305
3.1399136 4.2711372 2.146601
3.1399136 4.4707541 2.1448734
3.1399136 4.6284957 2.1410325
3.2199135 4.6239238 2.1496165
3.1399136 4.6536756 2.1485105
3.1399136 4.6797404 2.1495359
0.30347443 4.6802273 2.1499994
1.1584235 4.6802273 2.1484683
1.9534159 4.6802273 2.1460233
2.0042014 4.6802273 2.1450849
2.6204722 4.6802273 2.1440177
2.639735 4.6802273 2.1477156
-8.7738037e-05 4.7300186 2.1468012
2.8999138 4.7834845 2.1412563
3.1399136 4.8198686 2.1423304
3.2199135 4.8230228 2.1431119
5.3966069 4.8252277 2.1429114
6.5915718 4.8252277 2.1421971
6.9157095 4.8252282 2.1408405
8.1470013 4.8252277 2.1435621
8.4033718 4.8252277 2.1431699
1.4384217 4.880228 2.1460612
1.4411707 4.880228 2.141422
1.8619509 4.880228 2.1433666
1.9660953 4.880228 2.1439173
2.2241569 4.880228 2.1422265
8.1349125 4.9063263 2.1449192
9.3499126 4.9008608 2.1493511
9.3499126 4.9286075 2.1410246
4.8266392 4.9402275 2.1474335
5.9186516 4.9402275 2.1424496
8.6835442 4.9402275 2.1422572
8.8557873 4.9402275 2.1423757
8.9663143 4.9402275 2.1401887
6.4649124 5.2249727 2.1419923
6.3499126 5.262764 2.148268
6.4649124 5.4309492 2.1419392
9.2349148 5.501647 2.1434834
9.2349148 5.6812973 2.1427193
6.1153812 5.7402267 2.1432443
6.2178607 5.7402267 2.143075
6.3499126 5.82967 2.1407681
5.9999123 5.9172411 2.1448765
4.684927 6.0206199 2.1495783
6.3499131 6.0217457 2.1426311
6.4649124 6.0221734 2.1437697
9.2349148 6.0222626 2.1410959
-8.7738037e-05 6.0860109 2.1445513
0.23991394 6.0802999 2.1465738
14.439928 6.1077347 2.1487579
6.3499126 6.2356768 2.1468003
1.6649284 6.2606335 2.1498835
3.1399136 6.3089037 2.1479805
14.67993 6.3008561 2.1461234
0.800955 6.3202267 2.1414993
0.8626858 6.3202267 2.144408
0.92871112 6.3202267 2.1472745
1.1891476 6.3202267 2.1438603
9.2349148 6.3382077 2.1482625
6.4649124 6.3736215 2.1416523
5.8849125 6.3850307 2.1498315
14.439928 6.3970475 2.1406066
0.93074185 6.4002266 2.1491919
1.2067178 6.4002266 2.1498961
5.9999123 6.4331322 2.1405337
14.439928 6.4668012 2.1412482
9.3499126 6.5528021 2.1418915
9.3499126 6.5875521 2.1419835
3.1488454 6.6402283 2.1488428
4.5555496 6.6402283 2.1450539
5.9570627 6.6402283 2.1492338
6.0803976 6.6402283 2.140368
6.2116961 6.6402283 2.1431556
7.2076569 6.6402283 2.1411297
8.0727262 6.6402283 2.1484766
9.2036629 6.6402283 2.1425595
9.4283829 6.6402283 2.1461997
10.645465 6.6402283 2.1466899
10.919409 6.6402283 2.1468341
11.74194 6.6402278 2.1463404
12.046524 6.6402283 2.1440032
12.880301 6.6402283 2.1419194
13.310954 6.6402283 2.1478171
13.370758 6.6402283 2.1493165
13.484886 6.6402283 2.1458483
13.939234 6.6402283 2.1405139
14.170515 6.6402283 2.1418138
14.22008 6.6402283 2.1439471
14.439928 6.7342048 2.1458297
-8.7738037e-05 6.7911034 2.1418543
0.23991396 6.8528028 2.1418393
