# .PCD v0.7 - Point Cloud Data file format
VERSION 0.7
FIELDS x y z
SIZE 4 4 4
TYPE F F F
COUNT 1 1 1
WIDTH 1594
HEIGHT 1
VIEWPOINT 0 0 0 1 0 0 0
POINTS 1594
DATA ascii
2.0485129 9.0152302 1.3912328
2.6056161 9.0152302 1.3968724
3.0770869 9.0152302 1.3972278
3.1978843 9.0152302 1.39449
3.6311262 9.0152302 1.3989229
6.5400734 9.0152302 1.3936229
6.6571875 9.1152306 1.3961513
14.67993 9.1721745 1.3947999
4.2549133 9.1897812 1.3969064
4.2549133 9.2379894 1.3912246
4.1399136 9.3185692 1.3963826
14.67993 9.8161011 1.3999457
9.8099117 9.8263702 1.3983608
10.049913 9.9700289 1.3975317
10.049913 10.102776 1.3906245
6.7099133 10.1116 1.3934789
9.8099117 10.204503 1.3953114
10.049913 10.209626 1.3984557
6.7099133 10.213911 1.3970767
10.049913 10.232776 1.3967446
6.5949135 10.25785 1.3980788
6.5949135 10.27464 1.3910259
6.7099133 10.271404 1.3923903
14.439928 10.279696 1.3951755
6.5949135 10.34606 1.3954905
14.439928 10.357607 1.3947867
10.049913 10.361783 1.3926085
10.049913 10.404344 1.3928338
5.6949139 10.431597 1.3911685
5.6949139 10.507221 1.3927928
9.8099117 10.572255 1.3947917
5.6949139 10.624451 1.3951374
4.1399136 10.634734 1.3955959
-0.12008667 10.660801 1.3967745
4.3253579 10.715231 1.3977472
6.5949135 10.711863 1.397315
14.439928 10.771765 1.3992724
3.1399136 10.808161 1.393705
0.1199131 10.815525 1.3959221
3.6243923 10.830231 1.3940952
14.439928 10.836826 1.3919536
3.1399136 10.8413 1.3959408
6.5949135 10.84196 1.3901265
14.67993 10.860901 1.3941889
5.6949139 10.95523 1.395795
10.049913 10.972612 1.3910786
0.1199131 11.013263 1.3999982
14.49706 11.100231 1.3989441
3.1399136 11.177672 1.3977612
9.8099117 11.195417 1.398859
6.1252427 11.245232 1.3902169
6.7099133 11.694595 1.3902167
6.5949135 11.794411 1.3934615
10.049913 11.951767 1.3984724
9.8099117 12.132143 1.3974864
3.1399136 12.251751 1.3947116
0.1199131 12.283995 1.3901064
6.7099133 12.324715 1.3913772
9.8099117 12.34151 1.3988848
10.049913 12.345562 1.3998222
-0.12008667 12.432291 1.3996384
3.1399136 12.477095 1.39947
9.8099117 12.535419 1.3904942
9.8099117 12.547088 1.3960901
9.8099117 12.634183 1.39237
10.049913 12.852468 1.3941661
6.7099133 12.969114 1.3972158
10.049913 13.009169 1.3991249
3.1399136 13.077431 1.39666
9.8099117 13.089858 1.3974526
0.16072938 13.100231 1.3955653
0.60841197 13.100231 1.3949474
5.6552072 13.100231 1.3921174
5.84624 13.100231 1.3916571
6.4761057 13.100231 1.3959798
9.6528931 13.100231 1.3926305
9.9076214 13.100231 1.3955505
7.0999126 13.160543 1.3941731
9.8099117 13.274284 1.3959954
5.3469124 13.312736 1.3938531
9.1199131 13.331896 1.3926204
0.36696091 13.340231 1.3996108
0.79600751 13.340231 1.3968191
1.255476 13.340231 1.3961114
1.4637166 13.340231 1.393505
3.7308981 13.340231 1.3975092
4.0275407 13.340231 1.3946055
5.6233406 13.340231 1.3935654
6.2430878 13.340231 1.3926119
10.049913 13.468043 1.3965919
10.049913 13.560326 1.3931595
9.8099117 13.773987 1.3998915
14.51437 13.780231 1.3909333
14.67993 13.909967 1.3990521
14.242505 13.950232 1.3977895
10.049913 13.982035 1.3971547
10.049913 14.048677 1.3948768
0.57292324 0.14523125 1.4098455
2.8543229 0.14523125 1.4039961
2.8669605 0.14523125 1.4083982
3.265378 0.14523125 1.4097309
3.2926333 0.14523125 1.4088265
3.3481479 0.14523125 1.4043654
5.148335 0.14523125 1.4045814
5.5571108 0.14523125 1.4085566
6.650322 0.14523125 1.4025073
8.3833504 0.14523125 1.402117
8.401022 0.14523125 1.4083266
8.4315033 0.14523125 1.4042161
8.6470852 0.14523125 1.4097378
8.8159351 0.14523125 1.4041638
8.8502102 0.14523125 1.4020507
9.0386839 0.14523125 1.4050158
9.3769341 0.14523125 1.4094794
10.872653 0.14523125 1.4041964
11.134238 0.14523125 1.4082457
11.377459 0.14523125 1.4090494
3.1729982 0.24476624 1.4004176
3.5110803 0.24476624 1.4050717
3.7926049 0.24476624 1.4004637
5.443223 0.24476624 1.4071412
5.8003368 0.24476624 1.4075166
5.8107319 0.24476622 1.4079767
6.2165074 0.24476624 1.4030945
6.5727501 0.24476624 1.4012972
6.6441655 0.24476622 1.4023799
8.2301607 0.24476624 1.4000202
8.4204674 0.24476624 1.4031788
8.4942961 0.24476624 1.4017068
9.0086823 0.24476624 1.4041467
9.9944992 0.24476624 1.4001065
10.017386 0.24476624 1.4021378
10.150329 0.24476624 1.4001302
10.589561 0.24476624 1.4045517
3.1399136 0.41439265 1.4034864
3.2199135 0.44045919 1.4013205
2.8999138 0.49704552 1.4011327
14.439928 0.50566816 1.4023755
3.1399136 0.5367986 1.4058571
14.439928 0.54866552 1.4063127
14.439928 0.57515669 1.4046936
6.0524139 0.59341949 1.4075937
9.8099117 0.63332099 1.4088398
3.1399136 0.85947347 1.4016926
9.8099117 0.93963623 1.4093083
-8.7738037e-05 0.97379261 1.4047258
3.1399136 0.97980571 1.4054561
14.67993 1.0159484 1.4020419
14.67993 1.1027423 1.4021513
9.8099117 1.2173371 1.4002649
2.8999138 1.2540193 1.4094664
3.1399136 1.3510776 1.4076865
0.019566195 1.3802299 1.4094483
2.8999138 1.4487703 1.406516
2.8999138 1.5077887 1.4017296
6.2099133 1.5382909 1.4048196
14.439928 1.5470272 1.4022223
14.439928 1.602772 1.4099624
3.2199135 1.6538285 1.4020088
10.049913 1.6566962 1.4083878
14.439928 1.7136852 1.403561
3.1399136 1.9536482 1.4066253
10.049913 2.0428615 1.4063015
6.2099133 2.0530932 1.4039154
6.2099133 2.0757012 1.4030967
3.1399136 2.1365864 1.4092062
6.2099133 2.1399951 1.4012215
3.1399136 2.1412413 1.4052374
2.8999138 2.1750424 1.4055368
3.2199135 2.1732986 1.4043157
9.8099117 2.4932344 1.4012498
9.8099117 2.5645473 1.403353
14.67993 2.577085 1.4016182
6.0949135 2.637336 1.4030848
10.049913 2.6671171 1.4020406
3.2199135 2.694725 1.4067843
0.23991393 2.7473524 1.4026645
3.2199135 2.812484 1.4047388
6.0949135 2.8620505 1.4065604
3.1399136 2.9625525 1.4026625
3.2199135 2.9624419 1.4025656
6.2099133 3.000648 1.4007468
9.8099117 3.0190072 1.4089005
10.049913 3.0632753 1.4026768
6.2099133 3.0981286 1.4083365
6.0949135 3.1028786 1.4016515
3.1399136 3.2116644 1.4069349
3.1399136 3.229393 1.4056896
6.0949135 3.2833071 1.4094504
-8.7738037e-05 3.2968836 1.4017366
3.1399136 3.2957926 1.4077327
10.049913 3.2998574 1.4017301
2.8999138 3.4570415 1.4011135
6.2099133 3.4876189 1.4056475
6.0949135 3.5662155 1.400948
3.1399136 3.5865188 1.4083071
3.1399136 3.6439879 1.4084773
10.049913 3.7189417 1.4007239
3.8810825 3.7502308 1.4001613
4.2311759 3.7502308 1.4079782
5.7170954 3.7502308 1.4071958
9.559865 3.7502308 1.4014852
9.8180294 3.7502308 1.406696
9.9654036 3.7502308 1.4017479
10.049913 3.7894053 1.4028678
4.4099121 3.8296251 1.403415
4.2112989 3.8652306 1.4086834
6.4604359 3.8652306 1.404724
7.8099136 3.8644311 1.4030683
8.6983404 3.8652306 1.4055814
8.9793301 3.8652306 1.4054635
9.0741339 3.8652306 1.4084244
9.2678375 3.8652306 1.4036205
9.7801476 3.8652306 1.4008306
9.3499126 3.8793073 1.4002568
9.2714062 3.9102306 1.4069599
3.1399136 3.9218585 1.4052441
-8.7738037e-05 4.255312 1.4084055
-8.7738037e-05 4.4031773 1.4061304
2.8999138 4.408145 1.4088656
2.8999138 4.4840536 1.4000583
3.1399136 4.4909906 1.408053
3.1399136 4.5719185 1.4051173
3.1399136 4.6559477 1.4095914
-8.7738037e-05 4.6699347 1.4056492
0.2634376 4.8202305 1.406204
0.76416957 4.8202305 1.4097812
0.87516421 4.8202305 1.4006529
1.9338506 4.8202305 1.4095483
5.0004325 4.9652309 1.4075007
5.7003832 4.9652309 1.4004915
6.2209387 4.9652309 1.4029795
6.558001 4.9652309 1.4096091
7.2298331 4.9652309 1.4050258
9.0221138 4.9652309 1.4005232
9.2349148 4.9622989 1.4086738
2.8999138 4.9861636 1.4076102
8.1349125 4.9866052 1.4064987
7.3649139 5.0093012 1.409024
0.76407653 5.0202312 1.4071691
0.97901034 5.0202312 1.4071444
1.5304136 5.0202312 1.4056827
2.5245121 5.0202312 1.4056084
2.5707068 5.0202312 1.4001594
5.9077058 5.0802307 1.4005007
6.7005763 5.0802307 1.4056168
6.8759799 5.0802307 1.4056038
7.146781 5.0802307 1.401487
7.2963815 5.0802307 1.4019314
8.8599291 5.0802307 1.4084466
3.0436044 5.0952301 1.4038708
3.1793003 5.0952301 1.4006262
9.3499126 5.1798797 1.4066963
6.3499126 5.2560806 1.4082837
6.3499126 5.2736073 1.4099352
9.2349148 5.4654036 1.4061812
6.4649124 5.6705942 1.4054687
9.2349148 5.6972256 1.402961
9.3499126 5.7222977 1.4057266
6.2676935 5.760231 1.4081296
14.67993 5.8658652 1.404822
6.1200895 5.8802299 1.4068556
4.586288 5.9852314 1.4006507
14.439928 6.0664616 1.4005654
2.9023914 6.1252308 1.4061764
14.67993 6.1299171 1.4013354
6.4649124 6.2156343 1.4078071
0.84978056 6.2202301 1.4008386
1.5179708 6.2202301 1.4046731
9.2349148 6.2663536 1.4027984
1.4249287 6.271358 1.4048836
14.439928 6.300139 1.4031464
4.684927 6.3483219 1.4053905
0.1199131 6.4636884 1.408655
1.3457774 6.4602299 1.4030197
6.4649124 6.4732356 1.4070132
5.8849125 6.4912167 1.4009809
0.23991394 6.5170693 1.405672
0.1199131 6.5262394 1.4005985
1.0203078 6.5402298 1.4009643
5.8849125 6.5612259 1.4008771
14.67993 6.6614919 1.4055387
5.9999123 6.729043 1.4097124
4.0364552 6.7802315 1.4068477
4.3442717 6.7802315 1.4043136
6.4566126 6.7802315 1.407449
6.9063654 6.7802315 1.4099579
8.378665 6.7802315 1.4086308
9.4224453 6.7802315 1.4036983
0.1199131 6.8163352 1.4058439
14.679929 6.8507552 1.4089342
1.6649284 6.9424787 1.4089459
1.4249287 6.9972963 1.4097672
1.7550402 7.0202312 1.4051796
3.3840184 7.0202312 1.4047793
3.5445855 7.0202312 1.4045541
4.476717 7.0202312 1.4008963
6.9549193 7.0202312 1.4082444
7.7327304 7.0202312 1.4076432
7.9076858 7.0202312 1.4036351
8.6932411 7.0202312 1.4044197
9.2610807 7.0202312 1.4054548
9.2730131 7.0202312 1.4073703
9.8457928 7.0202312 1.4067537
10.586313 7.0202312 1.407433
12.22946 7.0202312 1.407887
12.251807 7.0202312 1.4022927
12.408434 7.0202312 1.4090098
13.805001 7.0202312 1.4015762
-0.12008667 7.1027107 1.4032289
1.3449287 7.1295595 1.4042885
1.4599285 7.1870241 1.4000394
14.439928 7.3461266 1.4031508
14.67993 7.4580078 1.408795
7.8813939 8.30023 1.4028724
8.2439671 8.30023 1.404556
8.3060856 8.30023 1.4053966
9.6011829 8.30023 1.4051818
6.5949135 8.3673077 1.4067674
7.2250614 8.4152298 1.4025536
7.2982616 8.4152298 1.4034377
7.3141346 8.4152298 1.4013824
7.59025 8.4152298 1.4063354
7.9164677 8.4152298 1.4046975
9.0981102 8.4152298 1.4041758
9.7420855 8.4152298 1.4085138
4.2549133 8.4227362 1.4017659
5.4549122 8.4893436 1.4049175
10.049913 8.5294237 1.4037902
5.5699139 8.5988903 1.403198
1.4599285 8.6183386 1.4021201
0.38991356 8.6375294 1.406768
5.5699139 8.6634731 1.4023167
5.4549122 8.6887207 1.4037504
0.50991249 8.7260647 1.4050767
1.3449287 8.7435513 1.4058821
1.3449287 8.7658978 1.4006031
1.3449287 8.8180466 1.4067967
-0.12008667 8.8501024 1.4026011
6.7099133 8.8509941 1.4042599
10.049913 8.8774242 1.4059751
1.2644444 8.9002304 1.4065154
2.6228108 8.9002304 1.4021382
3.1896966 8.9002304 1.4054266
3.5271368 8.9002304 1.4077239
5.6974988 8.9002304 1.4088335
5.7471118 8.9002304 1.4094133
6.0377798 8.9002304 1.4003234
0.1199131 8.9400997 1.4084989
1.2648076 9.0152302 1.402052
1.8835701 9.0152302 1.4063309
2.447331 9.0152302 1.4054511
2.505558 9.0152302 1.4067389
2.5550215 9.0152302 1.4012237
2.6780169 9.0152302 1.4078823
2.8760078 9.0152302 1.4050643
3.7177114 9.0152302 1.4050756
3.7351451 9.0152302 1.4040949
5.8178043 9.0152302 1.4065509
6.5949135 9.0375671 1.4030608
14.67993 9.2239227 1.4075438
14.67993 9.2555342 1.4029012
4.1399136 9.584425 1.4095294
14.439928 9.6416378 1.4093692
4.1399136 9.6636429 1.4019796
4.252459 9.7152309 1.4018034
9.8099117 9.7274675 1.4069799
10.049913 9.8031492 1.4030855
14.439928 9.8267908 1.4060011
-0.12008667 9.8488655 1.40237
6.6993818 10.01523 1.4093567
10.049913 10.081997 1.4014411
5.6494513 10.115231 1.4082776
10.049913 10.296312 1.4049298
6.7099133 10.320827 1.4017482
0.1199131 10.383519 1.4047633
6.5949135 10.380145 1.401179
0.1199131 10.498516 1.4016365
10.049913 10.522205 1.4009271
0.1199131 10.531767 1.4062439
6.5949135 10.612453 1.4072766
5.5799122 10.647025 1.4050164
4.2549133 10.666345 1.4098587
9.8099117 10.705381 1.4099023
3.7118082 10.715231 1.4034086
3.9014735 10.715231 1.4032204
5.1459866 10.715231 1.4049423
6.1195889 10.71023 1.4069973
6.5949135 10.727601 1.4088471
3.9510059 10.830231 1.4067477
6.2883854 10.830231 1.4069464
6.3529592 10.830231 1.4076753
6.4839396 10.830231 1.4061224
5.6949139 10.866377 1.4020962
14.67993 10.956083 1.4036767
6.5949135 10.989538 1.4057084
9.8099117 10.983515 1.401706
14.474173 11.100231 1.4089587
14.60639 11.100231 1.4075184
6.0422816 11.13023 1.4034092
10.049913 11.280813 1.4044666
10.049913 11.329332 1.4070474
9.8099117 11.346324 1.4084814
3.1399136 11.435906 1.4003117
6.7099133 11.539268 1.4089508
-0.12008667 11.568975 1.4059726
-0.12008667 11.774999 1.4048196
9.8099117 11.856392 1.4097199
0.1199131 11.864277 1.4060858
-0.12008667 11.900719 1.4087192
10.049913 11.916719 1.4091619
6.7099133 11.939891 1.40769
9.8099117 11.984882 1.4030194
6.5949135 11.99203 1.4071206
6.7099133 12.03334 1.4009483
3.2549133 12.057519 1.4033958
10.049913 12.124267 1.4041374
6.5949135 12.136058 1.4068041
10.049913 12.342452 1.4064422
3.1399136 12.371858 1.4088776
10.049913 12.437138 1.4057562
3.1399136 12.466996 1.4002163
3.2549133 12.517193 1.4036645
-0.12008668 12.591325 1.4007348
9.8099117 13.016199 1.4090277
-0.12008667 13.075982 1.4009343
1.0634037 13.100231 1.4069216
1.3997445 13.100231 1.4027355
1.4927295 13.100231 1.4092625
2.8378525 13.100231 1.4092075
3.2432044 13.100231 1.4094707
6.5189552 13.100231 1.4002839
9.477272 13.100231 1.4075441
9.8099117 13.164736 1.4088901
2.8498683 13.340231 1.4003611
3.2306409 13.340231 1.4057648
3.5420136 13.340231 1.4019198
3.632585 13.340231 1.4062407
3.7280753 13.340231 1.4095018
4.347785 13.340231 1.4084033
5.4385476 13.340231 1.4065893
6.1742182 13.340231 1.4080143
6.4882431 13.340231 1.4078987
7.089787 13.340231 1.4019567
9.2625542 13.340231 1.4058315
9.8099117 13.429493 1.4083226
10.049913 13.735197 1.4014984
14.67993 13.923248 1.4059426
14.01032 13.950232 1.4073945
14.09823 13.950232 1.4012946
14.360283 13.950232 1.4018096
14.004919 14.037491 1.4032761
14.439928 14.123832 1.4058727
14.439928 14.131473 1.4082975
10.049913 14.146603 1.4029131
10.049913 14.1721 1.4074889
10.484919 14.182239 1.4072405
9.9818707 14.190231 1.4031123
10.264446 14.190231 1.4085538
14.281948 14.190231 1.4036738
0.098703444 0.14023018 1.4106941
0.67739785 0.14523125 1.4147298
2.9529366 0.14523125 1.4191372
8.3657455 0.14523125 1.4167198
8.7864695 0.14523125 1.4109092
8.8388643 0.14523125 1.4131725
9.618331 0.14523125 1.4121363
10.306157 0.14523125 1.4164366
11.062989 0.14523125 1.4135768
0.54302669 0.24476624 1.4129599
2.9427323 0.24476624 1.4177353
2.9756331 0.24476624 1.4115751
3.0539479 0.24476624 1.4130585
3.0728402 0.24476624 1.4170425
5.5560474 0.24476624 1.4194995
6.1238918 0.24476624 1.4135704
6.2126222 0.24476624 1.4126016
8.1243811 0.24476624 1.417021
9.3768787 0.24476624 1.4181943
9.4514179 0.24476624 1.4142708
10.229547 0.24476624 1.4139924
10.590017 0.24476624 1.4194161
11.33715 0.24476624 1.4130275
14.45133 0.24476624 1.4183842
14.439928 0.36507007 1.4108522
0.23991394 0.43560511 1.414287
2.8999138 0.46956933 1.4171658
3.1399136 0.63136256 1.4193426
2.8999138 1.0287137 1.4155009
3.1399136 1.0232379 1.4139589
14.67993 1.2056288 1.4174452
14.67993 1.2309721 1.4134909
10.049913 1.3134162 1.4133314
3.1399136 1.368166 1.4122928
10.049913 1.3673247 1.4198263
14.67993 1.4134722 1.4194528
14.439928 1.4673626 1.4179122
3.1399136 1.6569555 1.4175657
6.2099133 1.6791195 1.4102961
14.67993 1.6772249 1.4177513
14.439928 1.714275 1.4106568
3.1399136 1.720139 1.4163866
10.049913 1.7632542 1.4122977
6.2099133 1.8148661 1.4181757
14.439928 1.9055181 1.4146024
3.2199135 1.9890677 1.4168552
14.67993 1.9978517 1.4157349
6.2099133 2.0900176 1.4139516
9.8099117 2.0936296 1.4166824
3.2199135 2.2046885 1.4191835
6.0949135 2.3196073 1.4127332
3.1399136 2.3322186 1.4109623
14.67993 2.5778651 1.4161421
3.1399136 2.5835786 1.4101632
3.2199135 2.6642833 1.4108095
14.439928 2.7266183 1.4148426
-8.7738037e-05 2.8012221 1.4100356
6.2099133 2.8507125 1.4127451
9.8099117 2.8748055 1.413533
3.1399136 2.9551291 1.4131768
10.049913 3.0659847 1.4193664
0.23991394 3.1756201 1.4129403
3.1399136 3.184449 1.4134483
6.2099133 3.1945148 1.4176544
3.1399136 3.3571734 1.412047
-8.7738037e-05 3.3869128 1.4182976
3.1399136 3.3801465 1.4123406
6.2099133 3.4108028 1.4197245
3.1399136 3.7197812 1.417925
3.7002931 3.7502308 1.4126074
5.8438749 3.7502308 1.4167334
6.1097383 3.7502308 1.4120415
7.9671812 3.7502308 1.4176782
8.5640087 3.7502308 1.4166434
8.6468954 3.7502308 1.4127737
8.9290724 3.7502308 1.4186337
9.0375586 3.7502308 1.4121391
9.7070885 3.7502308 1.4135994
10.049913 3.8280606 1.4134269
10.049913 3.8554077 1.4179176
3.1959729 3.8652306 1.4147693
3.5474224 3.8652306 1.417634
4.3571587 3.8652306 1.4108135
5.8059101 3.8652306 1.4120705
6.5745497 3.8652306 1.4166917
9.2892017 3.9102304 1.4195046
0.23991393 3.9283147 1.4132022
0.23991394 4.0691195 1.410925
3.1399136 4.2416792 1.4116261
3.2199135 4.2987218 1.4191638
3.2199135 4.3767567 1.4181776
2.8999138 4.3921313 1.4185852
2.8999138 4.4685369 1.4123644
3.1399136 4.546782 1.4181793
3.1399136 4.5755062 1.4193364
0.23991394 4.6343746 1.4115173
3.1399136 4.6501703 1.4111586
0.78286433 4.8202305 1.4190009
0.89172107 4.8202305 1.4166226
2.728714 4.8202305 1.4185159
3.1399136 4.823761 1.4112878
9.2725029 4.9202309 1.4118807
4.6751599 4.9652309 1.4126767
4.7323761 4.9652309 1.4191637
4.9017925 4.9652309 1.4139358
6.2869568 4.9652309 1.4179416
8.135067 4.9652309 1.4160246
8.2710629 4.9652309 1.4163953
8.3922958 4.9652309 1.418725
4.684927 4.9867482 1.416311
9.3499126 5.0065842 1.4189975
4.684927 5.0117226 1.4172066
8.1349125 5.0178967 1.4136614
0.05664786 5.0202312 1.4171941
1.9719422 5.0202312 1.4181449
2.0714929 5.0202312 1.4105821
2.8192482 5.0202312 1.4170794
3.1399136 5.0708337 1.4167663
7.131043 5.0802307 1.4162856
8.7772236 5.0802307 1.4169054
8.9385643 5.0802307 1.4153876
2.9189508 5.0952301 1.4190272
9.3499126 5.4416542 1.419229
6.4649124 5.4707398 1.4120913
9.3499126 5.514864 1.4168612
9.3499126 5.5654869 1.4177669
5.9999123 5.8417978 1.4163198
9.3499126 5.9657679 1.4148623
4.684927 6.0067778 1.4145432
3.2097893 6.1252308 1.4123238
-0.12008667 6.2288642 1.410198
0.68631905 6.2202301 1.411778
0.82721889 6.2202301 1.4106739
1.4618191 6.2202301 1.4130623
0.1199131 6.2480845 1.418835
3.1399136 6.2603641 1.4181664
14.67993 6.3387098 1.4149375
2.8999138 6.352941 1.4163095
4.5699272 6.4070282 1.4199679
14.67993 6.4054604 1.4197277
1.4249287 6.4261122 1.4144347
1.6649284 6.4507561 1.4158528
0.58161801 6.4602299 1.411697
9.2349148 6.4919605 1.4144294
0.64841205 6.5402298 1.4184275
1.3444766 6.5402298 1.4159951
5.8849125 6.6615334 1.4186578
1.6649284 6.6943884 1.4102947
3.2199135 6.7139444 1.4194931
-0.12008667 6.7541132 1.4144106
3.1399136 6.7737894 1.4150811
5.8849125 6.7749381 1.4199252
3.0092788 6.7802315 1.410903
3.2431893 6.7802315 1.4195322
3.5999274 6.7802315 1.4138484
4.3358288 6.7802315 1.4140059
4.3835478 6.7802315 1.4143684
4.6609602 6.7802315 1.4129486
5.5720501 6.7802315 1.4157207
5.8995867 6.7802315 1.4111516
7.5470996 6.7802315 1.414138
8.2409649 6.7802315 1.4181955
8.7836113 6.7802315 1.4127847
8.8288279 6.7802315 1.4117336
10.877647 6.7802315 1.4167005
11.403207 6.7802315 1.4131351
11.60893 6.7802315 1.4147671
11.644503 6.7802315 1.4121978
11.990829 6.7802315 1.4162091
13.158225 6.7802315 1.4164934
13.232297 6.7802315 1.4168357
13.992266 6.7802315 1.413947
14.172474 6.7802315 1.4187113
1.4249287 6.9104919 1.4133341
1.6649284 6.9485521 1.4104972
1.6649284 7.0174885 1.4144533
5.9978452 7.0202312 1.4122951
6.7818503 7.0202312 1.4188585
7.5859351 7.0202312 1.4154044
11.608451 7.0202312 1.414479
12.987904 7.0202312 1.4190091
13.136748 7.0202312 1.4144033
13.248146 7.0202312 1.4139093
13.726965 7.0202312 1.4183702
13.952188 7.0202312 1.4161782
14.179752 7.0202312 1.4101619
1.4249287 7.0738392 1.4182599
0.1199131 7.2003102 1.415006
-0.12008667 7.4072266 1.4164768
14.439928 7.5978584 1.4130186
14.468767 7.7902298 1.4191819
14.476497 7.7902298 1.4193397
0.1199131 7.9472017 1.4177806
0.1199131 8.1394997 1.4137541
1.3449287 8.2205315 1.4172274
1.3449287 8.2629375 1.4108311
7.1011534 8.30023 1.4141607
7.7896032 8.30023 1.4100474
8.6776886 8.4152298 1.4116757
8.8620892 8.4152298 1.4127316
9.8099117 8.4667835 1.4151659
-0.12008667 8.4752808 1.4134446
0.1199131 8.5909042 1.4102943
0.31360251 8.6302299 1.4130883
6.7099133 8.6408262 1.4104806
0.38991356 8.6546955 1.4176289
0.16615632 8.7502308 1.417106
1.3449287 8.7886391 1.4111276
0.15072441 8.9002304 1.4166751
0.98626393 8.9002304 1.415127
1.4084345 8.9002304 1.4125152
2.3587306 8.9002304 1.4127384
3.878135 8.9002304 1.4158995
5.5589142 8.9002304 1.4174998
5.7576265 8.9002304 1.4197948
0.1199131 8.9376411 1.4141968
1.306712 9.0152302 1.4138144
2.571413 9.0152302 1.4137928
2.68694 9.0152302 1.4190652
2.9443491 9.0152302 1.4126244
3.6935003 9.0152302 1.4107978
3.8834002 9.0152302 1.4188716
5.5911431 9.0152302 1.4148579
6.4814487 9.0152302 1.418205
6.5864305 9.0152302 1.4146905
14.67993 9.122694 1.4146798
10.049913 9.2010517 1.4106375
4.1399136 9.2885218 1.4188192
4.1399136 9.2916565 1.413821
4.2549133 9.3362207 1.4101799
4.2549133 9.5216999 1.4177774
14.67993 9.6256714 1.4102046
-0.12008667 9.7610302 1.4110627
-0.12008667 9.8213406 1.4139292
14.67993 9.9338398 1.4148746
14.439928 10.07877 1.4111326
6.7099133 10.131808 1.4174217
6.5949135 10.156721 1.4169264
6.5949135 10.224005 1.4189535
6.5949135 10.26448 1.4120198
0.1199131 10.40486 1.4171461
6.7099133 10.416959 1.4156647
5.5799122 10.484881 1.4198867
6.5949135 10.528078 1.4197296
6.7099133 10.54369 1.418684
3.5120363 10.715231 1.4191437
3.7615788 10.715231 1.4171605
4.2359357 10.715231 1.4190502
5.216074 10.715231 1.4102004
6.0785656 10.71023 1.4125079
10.049913 10.73744 1.4194514
5.6949139 10.760306 1.417178
3.2549133 10.777676 1.4165285
5.1249123 10.7852 1.4125719
6.7099133 10.810061 1.4131783
3.6112628 10.830231 1.4198086
-0.12008667 10.86821 1.4149628
5.5799122 11.013724 1.4139386
5.592288 11.13023 1.4117055
5.9519534 11.13023 1.4113985
6.3600273 11.13023 1.4183762
6.5581965 11.13023 1.416015
-0.12008667 11.165464 1.4191693
3.2549133 11.167891 1.411561
6.5949135 11.209604 1.4192517
0.1199131 11.210831 1.4184831
3.1399136 11.21495 1.4154251
10.049913 11.22236 1.4175596
5.7193098 11.245232 1.4142814
6.0288401 11.245232 1.4162121
6.4243655 11.245232 1.4158953
0.1199131 11.345895 1.4174557
3.1399136 11.37634 1.4106522
0.1199131 11.442832 1.4182388
9.8099117 11.460387 1.4119802
3.2549133 11.544194 1.4160447
3.2549133 11.677258 1.415383
-0.12008667 11.684774 1.4172245
3.2549133 11.68178 1.413977
-0.12008667 11.789741 1.4166415
9.8099117 11.819687 1.4137952
3.1399136 11.820354 1.4186065
3.1399136 12.037825 1.4101708
3.1399136 12.143288 1.4119544
0.1199131 12.176329 1.4174123
6.7099133 12.415627 1.4124622
0.1199131 12.431931 1.4119605
0.1199131 12.496605 1.4135947
3.1399136 12.600815 1.4152527
9.8099117 12.605161 1.4100977
-0.12008667 12.837447 1.4191711
6.5949135 12.958577 1.419029
-0.087487817 13.100231 1.4187238
-0.054063249 13.100231 1.4195977
0.44077444 13.100231 1.4199783
1.1950377 13.100231 1.4106189
2.7872901 13.100231 1.4112872
2.8999887 13.100231 1.4151968
4.4696984 13.100231 1.4166342
5.5562916 13.100231 1.4179915
5.6228313 13.100231 1.4179784
5.7709684 13.100231 1.4186325
6.4318438 13.100231 1.4196026
9.1354933 13.100231 1.417357
2.5499134 13.115709 1.4165946
-8.7738037e-05 13.137357 1.4164253
9.1199131 13.1435 1.4182963
7.0999126 13.197851 1.4132153
1.3391752 13.340231 1.4143803
2.713908 13.340231 1.418739
2.9313903 13.340231 1.4194117
3.1801805 13.340231 1.4174695
3.8168354 13.340231 1.4100856
3.9556875 13.340231 1.4165803
4.3576851 13.340231 1.4190918
4.3744893 13.340231 1.4160517
6.4516182 13.340231 1.4120051
9.2948494 13.340231 1.4126328
10.049913 13.81811 1.4153694
9.8099117 13.995624 1.4159639
14.004919 14.060446 1.4118639
10.230038 14.190231 1.4163961
0.15702417 0.14023018 1.4271162
0.23959027 0.14023018 1.4283204
2.8640006 0.14523125 1.4215517
3.0116992 0.14523125 1.4266515
3.5383556 0.14523125 1.4293147
5.208437 0.14523125 1.4251889
5.5659819 0.14523125 1.4252274
7.949913 0.14795753 1.4289415
8.0848951 0.14523125 1.4225978
8.9938774 0.14523125 1.4236088
9.4956093 0.14523125 1.4238251
9.7879095 0.14523125 1.4229851
2.7049184 0.24476624 1.4281926
3.3752813 0.24476624 1.422812
3.8860652 0.24476622 1.4295419
5.9324851 0.24476624 1.4274378
6.2215552 0.24476624 1.4224534
6.7048268 0.24476624 1.4211502
10.015301 0.24476624 1.4200319
10.502638 0.24476624 1.4233407
11.157331 0.24476624 1.4258566
11.369244 0.24476624 1.4227885
6.0524139 0.39374748 1.4280704
3.1399136 0.43404198 1.4203156
14.67993 0.4373945 1.4294707
3.2199135 0.46186113 1.4276567
14.439928 0.47926003 1.4296651
14.67993 0.48386168 1.4234375
3.2199135 0.54434955 1.4271338
14.439928 0.62616444 1.4246322
3.2199135 0.69846237 1.4273593
9.8099117 0.71310544 1.4283414
0.23991394 0.72800493 1.4279364
10.049913 0.73758197 1.4217958
3.2199135 0.87855577 1.4206603
0.23991394 0.90314436 1.4252359
3.1399136 1.0652201 1.4206593
3.1399136 1.1072891 1.42391
10.049913 1.1550194 1.4253721
14.439928 1.176904 1.4233613
10.049913 1.2179494 1.4296695
6.1303482 1.3802299 1.4292686
6.0949135 1.3971753 1.421942
2.8999138 1.4293822 1.4285406
2.8999138 1.4698701 1.4265627
0.20694174 1.4852314 1.4225163
14.439928 1.6917806 1.4236931
9.8099117 1.7738549 1.4258522
9.8099117 1.8138857 1.4240369
3.2199135 2.0868585 1.429968
3.2199135 2.1476691 1.4238224
6.2099133 2.1765144 1.4272604
6.0949135 2.2522464 1.423075
10.049913 2.2745864 1.4263566
14.439928 2.3064101 1.4287722
14.439928 2.3591352 1.4297616
9.8099117 2.4090552 1.4214096
9.8099117 2.5676527 1.423961
14.67993 2.6736076 1.4202238
2.8999138 2.6825562 1.4245991
14.439929 2.9199047 1.4260259
6.0949135 2.9908237 1.4209011
9.8099117 2.9988687 1.4216942
0.23991394 3.2011662 1.4214551
2.8999138 3.4120758 1.4217143
6.2099133 3.5061851 1.4292146
3.1399136 3.5712605 1.4286597
9.8099117 3.6853585 1.4236765
3.2040081 3.7502308 1.4242749
3.2500226 3.7502308 1.4206388
3.3861613 3.7502308 1.4247441
3.6352873 3.7502308 1.4259431
4.2251263 3.7502308 1.4257061
5.4952292 3.7502308 1.4250201
6.6696482 3.7502306 1.4220062
8.7690477 3.7502308 1.4294145
9.3769236 3.7502308 1.4251887
9.9118929 3.7502308 1.4225173
9.949645 3.7502308 1.4256934
10.035168 3.7502308 1.424105
3.3022866 3.8652306 1.4272212
3.8200898 3.8652306 1.4283084
9.0429897 3.8652306 1.4245293
9.0782413 3.8652306 1.4280589
9.1200209 3.8652306 1.422801
9.1664658 3.8652306 1.4203275
9.3258915 3.8652306 1.4263694
9.330246 3.8652306 1.4255154
9.7287922 3.8652306 1.4227865
2.8999138 3.958426 1.4254434
2.8999138 4.0359983 1.4278843
0.23991394 4.0737877 1.4298773
0.23991394 4.0858173 1.4267467
-8.7738037e-05 4.2537322 1.4280781
2.8999138 4.2759967 1.4272718
2.8999138 4.2937403 1.4277174
3.2199135 4.5315695 1.421243
-8.7738037e-05 4.607585 1.4278754
3.1399136 4.6091957 1.4265022
3.2199135 4.7149391 1.4258903
3.1399136 4.7779922 1.4276116
1.1808525 4.8202305 1.4274976
2.1921971 4.8202305 1.4286169
2.2102432 4.8202305 1.4228098
3.1399136 4.853621 1.4287865
2.8999138 4.9172611 1.4211376
6.0108547 4.9652309 1.4258175
6.5769234 4.9652309 1.4248379
8.17173 4.9652309 1.429291
8.6114998 4.9652309 1.4204209
0.89545953 5.0202312 1.4257131
1.200938 5.0202312 1.4284512
1.5495597 5.0202312 1.4254148
2.2249761 5.0202312 1.4260163
5.1919694 5.0802307 1.4224151
5.6452532 5.0802307 1.4293283
5.7782984 5.0802307 1.4287307
5.8875246 5.0802307 1.4230393
6.2208452 5.0802307 1.4205831
8.8654413 5.0802307 1.4251745
2.9295764 5.0952301 1.4296502
4.5699272 5.1156163 1.4292065
5.8849125 5.1178894 1.4285282
4.5699272 5.1259394 1.4278346
4.684927 5.1964951 1.4203941
14.439928 5.7662578 1.4265774
9.3499126 5.8560553 1.4262066
6.1335311 5.8802299 1.4291668
9.3499126 5.9515905 1.4236902
4.6452875 5.9852314 1.4259024
6.4649124 6.0194197 1.4295442
6.3499126 6.0305328 1.4270439
9.3499126 6.0309176 1.4263674
3.1399136 6.1517467 1.426182
2.8999138 6.1884756 1.4227638
9.3499126 6.194325 1.4279838
3.1399133 6.2076035 1.4229293
0.55293322 6.2202301 1.4287887
14.67993 6.2939501 1.426491
3.1399136 6.3296175 1.4269333
0.1199131 6.3525038 1.4279869
2.8999138 6.355834 1.42035
6.4649124 6.3831139 1.4223969
1.6649284 6.4533877 1.4251308
1.1913364 6.4602299 1.4287269
1.6649284 6.4719915 1.423614
6.3499126 6.4836097 1.4209924
0.36643988 6.5402298 1.4212468
-0.12008667 6.6041646 1.4219402
6.4649124 6.6450787 1.4244624
0.1199131 6.7834506 1.4256694
2.834832 6.7802315 1.4218718
3.6671791 6.7802315 1.4276114
3.8976645 6.7802315 1.429269
4.1072917 6.7802315 1.4201279
5.1930966 6.7802315 1.4274499
5.5384531 6.7802315 1.4226694
5.8510141 6.7802315 1.4207785
7.0114384 6.7802315 1.4297054
7.1929541 6.7802315 1.4255664
7.2980752 6.7802315 1.4219153
7.8595457 6.7802315 1.4200107
8.0761366 6.7802315 1.4293495
8.9322109 6.7802315 1.4229069
9.2655525 6.7802315 1.4247371
9.9564848 6.7802315 1.4212674
10.218512 6.7802315 1.4258689
12.106764 6.7802315 1.4262036
13.316991 6.7802315 1.421942
-0.12008667 6.8129973 1.4205763
1.6649284 6.9953651 1.4279006
14.67993 7.0034652 1.4240271
1.4597026 7.0202312 1.424041
1.5954732 7.0202312 1.4265311
3.1286027 7.0202312 1.4216083
4.1543765 7.0202312 1.4235686
5.0440021 7.0202312 1.4286482
5.2700887 7.0202312 1.420122
5.707922 7.0202312 1.4285567
7.7525105 7.0202312 1.4290086
8.3038845 7.0202312 1.4226758
10.457423 7.0202312 1.4228535
10.638788 7.0202312 1.4244521
12.231471 7.0202312 1.4295878
12.688623 7.0202312 1.4283171
13.589236 7.0202312 1.4205569
1.3449287 7.2260423 1.4290814
-0.12008667 7.291275 1.4226114
1.3449287 7.3661408 1.4234438
14.439928 7.5350151 1.4220642
14.439928 7.5843401 1.4251144
0.1199131 7.7861185 1.4223516
5.477901 8.30023 1.4209586
6.749547 8.30023 1.4244398
7.4129705 8.30023 1.4273455
7.952384 8.30023 1.4243814
9.4701376 8.30023 1.4235307
9.6593704 8.30023 1.4299006
9.8356104 8.30023 1.4211378
6.9899149 8.4152298 1.4262691
7.3681355 8.4152298 1.4264086
8.1180153 8.4152298 1.4228177
8.543292 8.4152298 1.4288666
8.756608 8.4152298 1.4268459
9.0932159 8.4152298 1.4285328
1.4599285 8.4261789 1.4246886
6.5949135 8.5149841 1.4230744
6.5949135 8.5214748 1.4231331
-0.12008667 8.5758228 1.4225798
5.4549122 8.6128111 1.4229077
4.1399136 8.6607628 1.4288551
10.049913 8.7105265 1.4264113
1.3449287 8.7351532 1.4289739
6.5949135 8.7669125 1.4215444
1.4599285 8.7789965 1.4297349
0.38991356 8.8121538 1.4203722
0.50991249 8.848691 1.4260855
6.7099133 8.8893261 1.4287723
0.36883149 8.9002304 1.4241647
0.65545475 8.9002304 1.4231944
2.065325 8.9002304 1.4245881
2.9821115 8.9002304 1.426158
3.3575203 8.9002304 1.4253039
3.5259521 8.9002304 1.4286948
3.9586105 8.9002304 1.427243
0.1199131 8.9219398 1.4247067
0.1199131 8.9923477 1.4265623
0.35213757 9.0152302 1.4213833
1.3655077 9.0152302 1.42795
2.4115639 9.0152302 1.4285414
3.6785557 9.0152302 1.425764
5.5226464 9.0152302 1.4242522
9.8099117 9.1456385 1.420754
4.1399136 9.1581078 1.4221784
9.8099117 9.1661491 1.4268099
4.2549133 9.1962843 1.4234933
4.2549133 9.2583036 1.4258864
10.049913 9.3068237 1.4217392
-0.12008667 9.5185537 1.4233766
9.8099117 9.5162458 1.4239746
10.049913 9.6027727 1.4294958
0.1199131 9.6837025 1.4201217
0.1199131 9.7636595 1.4202563
-0.12008667 10.066737 1.4260168
5.5799122 10.144681 1.4279729
6.5849133 10.17764 1.4243839
14.67993 10.232903 1.4208776
14.439928 10.25802 1.4288595
5.5799122 10.298885 1.4293346
14.439929 10.333958 1.4249287
6.7099133 10.384922 1.4247075
14.67993 10.401536 1.4253205
9.8099117 10.452482 1.4202001
10.049913 10.552916 1.4231433
14.67993 10.588286 1.4219283
5.6949139 10.609482 1.427792
14.439927 10.628851 1.4236676
4.2549133 10.648623 1.4235137
3.345365 10.715231 1.4268062
3.62113 10.715231 1.4262595
3.99544 10.715231 1.4286153
5.4476485 10.715231 1.4299152
6.3669691 10.71023 1.4266307
6.5949135 10.716098 1.4228319
5.5799122 10.752581 1.4239972
6.5949135 10.765779 1.4215317
-0.12008667 10.900808 1.4221303
3.1399136 10.906143 1.422641
9.8099117 10.963253 1.4205263
0.1199131 11.049411 1.4203693
14.67993 11.042559 1.4213569
6.5949135 11.105476 1.4229304
5.8956776 11.13023 1.4295065
6.3778777 11.13023 1.4277489
3.2549133 11.225819 1.4208956
5.8143401 11.245232 1.4235657
6.5949135 11.569973 1.4247348
0.1199131 11.574635 1.4226496
10.049913 11.650503 1.4228691
6.5949135 11.688061 1.4275944
-0.12008667 11.783028 1.4286873
3.1399136 11.899029 1.420067
10.049913 11.93594 1.4252445
6.5949135 11.945359 1.4245458
6.7099133 11.961114 1.4257919
6.7099133 11.97349 1.4232316
10.049913 12.01671 1.4216225
9.8099117 12.086275 1.4236355
0.1199131 12.1569 1.4220991
6.7099133 12.236501 1.42134
6.7099133 12.278872 1.420512
10.049913 12.290831 1.4234049
0.1199131 12.568776 1.4218098
3.2549133 12.571518 1.4252497
6.5949135 12.751183 1.425084
-0.12008667 12.817595 1.4285146
0.1199131 12.839512 1.4291011
6.5949135 12.868684 1.4246536
0.34374267 13.100231 1.4215021
1.4301069 13.100231 1.4205894
2.8390636 13.100231 1.4225605
3.1560793 13.100231 1.4201206
5.9117804 13.100231 1.4288633
6.1172943 13.100231 1.4216886
6.6168885 13.100231 1.4295582
6.629508 13.100231 1.4287864
6.9675169 13.100231 1.4232671
9.6799345 13.100231 1.4247104
9.8099117 13.119567 1.4264174
9.8099117 13.147825 1.4240623
7.0999126 13.152975 1.4226966
0.29327694 13.340231 1.4282064
0.66582775 13.340231 1.4297442
0.73184228 13.340231 1.426187
1.0756503 13.340231 1.4269229
1.1110218 13.340231 1.4231415
1.3076813 13.340231 1.4282297
1.4687799 13.340231 1.428064
4.2142377 13.340231 1.4264133
4.5269694 13.340231 1.429149
5.5617118 13.340231 1.4285043
6.7019873 13.340231 1.4229918
9.2316904 13.340231 1.4293976
9.3031845 13.340231 1.4258988
9.5217352 13.340231 1.4220767
10.049913 13.474324 1.4267194
10.117246 13.950232 1.4291278
9.8099117 14.087328 1.4207215
10.484919 14.104321 1.4212525
10.049913 14.121021 1.4259022
14.439928 14.12273 1.4279823
10.049913 14.148571 1.424885
10.484919 14.158471 1.4207225
10.306828 14.190231 1.4252812
14.569548 14.190231 1.4204911
0.063323498 0.14023018 1.4326832
2.7491696 0.14523125 1.4389464
3.2316642 0.14523125 1.4353346
5.618299 0.14523125 1.4359478
8.0084658 0.14523125 1.4358118
9.8245068 0.14523125 1.432065
10.050264 0.14523125 1.4383959
11.3043 0.14523125 1.432613
0.23991394 0.1871928 1.4313281
7.949913 0.18437687 1.4380618
-8.7738037e-05 0.20410174 1.4353113
2.8316851 0.24476624 1.4369577
3.1753747 0.24476624 1.4304687
3.1944356 0.24476624 1.4301742
5.3049026 0.24476624 1.4331777
5.4883332 0.24476624 1.4317662
5.5228834 0.24476624 1.4300967
6.19455 0.24476624 1.4365784
6.5671654 0.24476624 1.4324725
8.8385086 0.24476624 1.4357803
9.6392689 0.24476624 1.4331625
9.974762 0.24476624 1.4376714
10.331924 0.24476624 1.4370503
14.569101 0.24476624 1.4357854
6.2524128 0.28827891 1.4301649
14.67993 0.3556422 1.4391536
14.67993 0.37187442 1.4389067
14.67993 0.40800321 1.4378507
3.1399136 0.55375862 1.4351827
2.8999138 0.5830971 1.4305145
6.0524139 0.63892025 1.439234
14.67993 0.66839385 1.4349091
9.8099117 0.7549789 1.432161
14.439928 0.8859303 1.4392776
3.2199135 0.98985499 1.4336433
6.2524128 1.0491103 1.4327946
14.67993 1.0693829 1.4333447
3.2199135 1.1319929 1.4357101
9.8099117 1.1538084 1.4385499
10.049913 1.1596022 1.439738
6.0524139 1.2177685 1.4366071
10.049913 1.2791755 1.4308834
3.2199135 1.3124423 1.4347483
6.1397629 1.3802299 1.4366207
6.0949135 1.4143769 1.4386147
-8.7738037e-05 1.4322202 1.4375749
0.12072583 1.4852314 1.4310288
9.8099117 1.5249174 1.438619
9.8099117 1.5918856 1.4303643
3.2199135 1.6290969 1.4357013
9.8099117 1.6290847 1.4300187
14.67993 1.6978337 1.4304799
14.67993 1.9928017 1.4350069
6.0949135 2.2883401 1.4333553
10.049913 2.529376 1.4382043
3.2199135 2.583462 1.4317417
3.1399136 2.7261474 1.4381741
0.23991394 2.8219671 1.4314718
6.2099133 2.8434334 1.4307979
14.439928 2.8421719 1.4395951
14.493296 2.9602299 1.4323763
6.2099133 3.1295853 1.4327385
2.8999138 3.1716473 1.4344281
6.0949135 3.1898656 1.4338115
6.0949135 3.2537282 1.4380181
3.1399136 3.432704 1.4365045
4.3724432 3.7502308 1.4332485
5.4841642 3.7502308 1.4307473
5.9269776 3.7502308 1.4329391
8.2719326 3.7502308 1.4310273
8.546998 3.7502308 1.4306554
9.6591797 3.7502308 1.4354032
9.68153 3.7502308 1.438388
3.1399136 3.8607154 1.4392347
8.8358965 3.8652306 1.4351788
10.049913 3.8615167 1.4367374
-8.7738037e-05 3.8943896 1.4323791
-8.7738037e-05 4.0234952 1.4345844
3.1399136 4.0299001 1.4344236
3.1399136 4.3582969 1.4368389
0.23991394 4.4778447 1.4398888
3.1399136 4.6287422 1.43329
0.23991394 4.6506748 1.4376837
3.2199135 4.7025795 1.4347578
0.29116708 4.8202305 1.4358033
0.58529979 4.8202305 1.4374552
1.2895091 4.8202305 1.4361234
1.3611128 4.8202305 1.4365857
2.2055087 4.8202305 1.4391513
2.8999138 4.8428574 1.4332819
4.7763805 4.9652309 1.4329904
6.0433121 4.9652309 1.4333395
6.2092237 4.9652309 1.4362555
7.1565928 4.9652305 1.4379513
8.3634586 4.9652309 1.4339986
8.7624063 4.9652309 1.4368069
8.8089371 4.9652309 1.4306257
3.1399136 4.9802651 1.4307511
0.44209495 5.0202312 1.4310478
0.51594442 5.0202312 1.4396673
2.8279004 5.0202312 1.4355675
9.3499126 5.0524492 1.4355392
9.2349148 5.0712657 1.4390712
4.8504276 5.0802307 1.4349227
4.8759875 5.0802307 1.4365356
5.0443349 5.0802307 1.4307445
6.3303366 5.0802307 1.4350576
8.9106579 5.0802307 1.4347758
3.0839829 5.0952301 1.4393189
0.94167483 5.1052303 1.4388115
0.95666277 5.1052303 1.4389281
14.48218 5.6402302 1.4330878
14.439928 5.6548042 1.4306015
6.3499126 5.7192793 1.4384599
6.4649124 5.7319565 1.4383289
14.439928 5.7323446 1.4315013
6.2454114 5.760231 1.4383518
9.2349148 5.7717924 1.4314516
6.4649124 5.845078 1.4304527
6.4649124 5.96942 1.4362702
9.2349148 5.9939404 1.4352548
0.9588117 6.135231 1.4330202
3.2199135 6.1812744 1.4324414
3.2199135 6.1902914 1.4321473
-0.12008667 6.232378 1.4352765
3.1399136 6.2878203 1.4310335
5.9999123 6.348712 1.4393752
6.4649124 6.3789129 1.4382864
14.67993 6.4326968 1.4316752
0.69083756 6.4602299 1.4356521
0.70655572 6.4602299 1.4328923
1.304037 6.4602299 1.4390359
14.439928 6.4783759 1.4398633
6.3499126 6.5259666 1.4339726
0.31595513 6.5402298 1.4319825
0.93661702 6.5402298 1.4348303
3.2199135 6.5440087 1.433497
6.3499126 6.5415521 1.4302067
9.2349148 6.7198896 1.4333801
14.67993 6.7500982 1.4390191
3.1820097 6.7802315 1.4342418
3.3299174 6.7802315 1.4350387
3.3645821 6.7802315 1.4330851
4.5178509 6.7802315 1.4314311
4.6944561 6.7802315 1.4316437
4.7450008 6.7802315 1.4353974
4.7691865 6.7802315 1.4300902
5.3527737 6.7802315 1.4376807
5.923039 6.7802315 1.4346282
6.0813837 6.7802315 1.437007
6.401639 6.7802315 1.4300965
7.8390555 6.7802315 1.4388475
8.2100182 6.7802315 1.438073
10.331227 6.7802315 1.43841
11.103939 6.7802315 1.4343448
12.470187 6.7802315 1.4310864
12.74238 6.7802315 1.4362662
1.3449287 6.8163843 1.4353337
1.4249287 6.9420905 1.4362766
14.439928 6.9879398 1.4366037
14.439928 6.99893 1.4334075
2.8348882 7.0202317 1.4302855
3.1390581 7.0202312 1.4372356
4.2569427 7.0202312 1.4387376
4.4412494 7.0202312 1.4317579
4.5551271 7.0202312 1.4335634
5.4101992 7.0202312 1.4312018
5.5144982 7.0202312 1.4352212
8.6561852 7.0202312 1.4354236
9.7434511 7.0202312 1.4342082
10.004775 7.0202312 1.438627
10.65739 7.0202312 1.437863
10.760253 7.0202312 1.4346361
11.440372 7.0202312 1.4361342
11.799316 7.0202312 1.4385936
12.482182 7.0202312 1.4327157
12.924119 7.0202312 1.4356959
13.774453 7.0202312 1.4383054
13.952023 7.0202312 1.4310385
0.1199131 7.1017175 1.4332325
14.439928 7.489419 1.4387925
14.439927 7.7559843 1.4356799
14.610781 7.7902298 1.4313245
0.1199131 8.1900778 1.4325925
-0.12008667 8.2814779 1.4382714
6.903367 8.30023 1.4315492
7.3122587 8.30023 1.4394019
7.420969 8.30023 1.4340568
7.7404428 8.30023 1.4393255
8.2426233 8.30023 1.4327111
8.2551441 8.30023 1.431523
8.439743 8.30023 1.4302061
6.5949135 8.3250284 1.439453
4.2549133 8.3937273 1.4373518
7.4522238 8.4152298 1.4313891
8.0383101 8.4152298 1.4390752
8.2603426 8.4152298 1.4313202
8.5941505 8.4152298 1.4300231
8.9007854 8.4152298 1.4393681
9.9189005 8.4152298 1.4364164
6.7099133 8.5232086 1.4393227
10.049913 8.6035767 1.4357946
5.5699139 8.665288 1.4323936
6.5949135 8.7882986 1.4334584
5.4549122 8.7923298 1.4360073
10.049913 8.7972574 1.4318652
5.4549122 8.8015375 1.4340516
14.505758 8.8402309 1.4367332
0.33933708 8.9002304 1.4361079
0.47249621 8.9002304 1.432084
0.78760386 8.9002304 1.4397621
1.4636531 8.9002304 1.4376314
3.4301775 8.9002304 1.4319901
5.4766707 8.9002304 1.4315306
0.94118261 9.0152302 1.4383516
1.9638598 9.0152302 1.4319645
2.4176867 9.0152302 1.4317069
2.6757567 9.0152302 1.4334362
2.6945302 9.0152302 1.4384127
3.229475 9.0152302 1.4313027
3.7389591 9.0152302 1.437091
3.7529137 9.0152302 1.4313054
3.7610633 9.0152302 1.4330086
3.7875423 9.0152302 1.4327927
4.0435052 9.0152302 1.4361142
5.8055124 9.0152302 1.4368875
5.97054 9.0152302 1.4394616
-0.12008667 9.0979462 1.4300892
-0.12008667 9.2076588 1.4387499
14.439928 9.2042389 1.4370707
9.8099117 9.402792 1.4388195
4.1925621 9.7152309 1.4369872
0.11991309 9.9287148 1.4388205
0.1199131 10.059724 1.4375074
10.049913 10.065495 1.4316509
14.439928 10.121679 1.4348142
10.049913 10.224701 1.4381877
5.6985164 10.23023 1.4388003
0.11991309 10.305851 1.4399843
6.7099133 10.417773 1.4380753
9.8099117 10.416224 1.4328538
4.1399136 10.677752 1.4332206
5.5084777 10.715231 1.4359818
6.2680368 10.71023 1.4375341
6.3070354 10.71023 1.4335986
10.049913 10.827744 1.430928
3.4308729 10.830231 1.4306335
4.2946219 10.830231 1.4391266
6.1972532 10.830231 1.4376922
6.2965446 10.830231 1.4374712
6.7099133 10.980244 1.4332662
14.67993 11.024334 1.43569
3.2549133 11.030445 1.4394057
14.67993 11.033425 1.4395086
10.049913 11.104928 1.4396394
14.476441 11.100231 1.435513
9.8099117 11.139408 1.4360389
3.2549133 11.18528 1.4371324
6.1353378 11.245232 1.4305289
3.2549133 11.366569 1.4339565
9.8099117 11.496851 1.4302568
-0.12008667 11.581032 1.4367841
6.7099133 11.594655 1.4381961
6.5949135 11.792704 1.4368714
6.5949135 11.956576 1.4360616
9.8099117 12.115862 1.4317302
0.1199131 12.139565 1.4397324
-0.12008667 12.22125 1.4326651
6.7099133 12.529323 1.4382447
6.7099133 12.548166 1.4329219
3.1399136 12.686153 1.4348212
6.5949135 12.69335 1.4360791
9.8099117 12.706532 1.4322783
3.2549133 12.84798 1.4326168
6.7099133 13.069084 1.4344429
0.67093945 13.100231 1.4369938
2.915833 13.100231 1.4394116
3.7559955 13.100231 1.4377496
6.667635 13.100231 1.4367292
9.5684223 13.100231 1.4329821
9.8099117 13.105331 1.4365346
9.9652882 13.100231 1.435564
9.8099117 13.142329 1.4334198
-8.7738037e-05 13.193264 1.4305824
10.049913 13.237483 1.4369617
7.0999126 13.327509 1.4340866
3.1712401 13.340231 1.4300256
3.3632612 13.340231 1.4348193
5.6293712 13.340231 1.4301082
6.1138444 13.340231 1.4321082
6.4737096 13.340231 1.4364558
14.659994 13.780231 1.4385897
10.176324 13.950232 1.4340861
10.365627 13.950232 1.4313111
10.465908 13.950232 1.4319631
14.67993 14.148116 1.4352304
14.67993 14.157059 1.4340194
9.845274 14.190231 1.4349321
14.240674 14.190231 1.4340631
0.22939514 0.14023018 1.4471692
0.52471185 0.14523125 1.4410876
2.8346443 0.14523125 1.447183
3.7944322 0.14523125 1.4403553
5.358408 0.14523125 1.449939
5.3787513 0.14523125 1.4426041
5.5900798 0.14523125 1.4447448
5.8085556 0.14523125 1.4448619
8.3068924 0.14523125 1.4475466
8.8878412 0.14523125 1.4435046
9.3118162 0.14523125 1.4443372
9.8256016 0.14523125 1.4432249
10.417489 0.14523125 1.4427153
11.310719 0.14523125 1.4497123
0.61860132 0.24476624 1.4460747
3.0295129 0.24476624 1.4401946
3.5322759 0.24476624 1.4407325
5.4924164 0.24476622 1.4445863
5.848876 0.24476624 1.440243
6.4883542 0.24476624 1.4474432
6.7158742 0.24476624 1.4429215
8.6590862 0.24476624 1.4443076
9.4386215 0.24476624 1.4416716
10.01571 0.24476624 1.441159
10.379539 0.24476624 1.4441756
10.768379 0.24476624 1.4466605
11.033369 0.24476622 1.447926
3.2199135 0.30805308 1.4487364
14.439928 0.33513352 1.4409286
-8.7738037e-05 0.36962956 1.4474955
3.1399136 0.42716756 1.4439842
3.1399136 0.43022433 1.4438405
3.1399136 0.49276635 1.4467584
6.2524128 0.50083768 1.4475881
14.67993 0.59756815 1.4473139
10.049913 0.6681577 1.4472967
6.2524128 0.67115146 1.4410104
-8.7738037e-05 0.6810959 1.4486341
2.8999138 0.71433926 1.4454176
6.2524128 0.87271142 1.4475926
3.2199135 0.88550287 1.4455175
6.0524139 0.89851671 1.441849
3.2199135 0.9135136 1.4494933
6.0524139 0.96715552 1.4446911
3.2199135 1.0123359 1.4489553
6.2524128 1.0456582 1.4415743
3.2199135 1.1210785 1.4413612
14.67993 1.1289079 1.4412235
3.1399136 1.1543434 1.447235
6.2065926 1.3802299 1.4460317
3.2199135 1.3979799 1.4440465
3.1399136 1.4111093 1.4446545
0.11422881 1.4852314 1.441498
6.0949135 1.5487947 1.4417186
3.1399136 1.7336258 1.4461
3.1399136 1.8306684 1.4491937
3.1399136 1.858669 1.4471419
14.67993 2.1489875 1.4462354
6.0949135 2.3102477 1.4484257
3.1399136 2.3278415 1.4444697
3.2199135 2.5113776 1.4413049
-8.7738037e-05 2.5866671 1.4469796
14.67993 2.7287457 1.4450654
3.2199135 2.7881143 1.4461184
3.1399136 2.8968611 1.444106
6.2099133 2.9140227 1.445938
14.67993 2.935324 1.448065
14.500023 2.9602299 1.4418966
6.0949135 2.9979279 1.4475594
2.8999138 3.3983767 1.4445205
10.049913 3.3996363 1.4458002
6.2099133 3.4331698 1.4412174
3.1399136 3.4869273 1.446384
6.0949135 3.4986553 1.4486485
3.1399136 3.607142 1.4405119
3.5812621 3.7502308 1.4433966
3.7948589 3.7502308 1.4410639
6.3422327 3.7502308 1.4421339
6.4216375 3.7502308 1.4406807
8.0889225 3.7502308 1.4474224
9.8199701 3.7502308 1.4468092
2.8999138 3.7606707 1.4490927
4.4099121 3.7859306 1.4427793
2.8999138 3.8171625 1.4440814
3.2199135 3.8694048 1.4497252
4.0141759 3.8652306 1.44069
6.1814833 3.8652306 1.4442595
6.3938007 3.8652306 1.4469492
8.2130413 3.8652306 1.4454091
9.4915724 3.8652306 1.4484458
-8.7738037e-05 4.1422005 1.4438419
2.8999138 4.4239211 1.4416226
0.43040708 4.8202305 1.447908
0.82346827 4.8202305 1.4492108
2.1248965 4.8202305 1.4404359
2.3861828 4.8202305 1.4453709
4.8570662 4.9652309 1.4494092
7.3034725 4.9652309 1.4475576
7.3649139 4.9661789 1.4417843
9.2349148 4.9648561 1.4457607
3.1399136 5.0129833 1.4411143
0.7740519 5.0202312 1.4454987
1.3460455 5.0202312 1.441592
1.9398497 5.0202312 1.4494834
8.1349125 5.0372849 1.4406416
8.1349125 5.0632749 1.4485762
4.8822155 5.0802307 1.4422946
5.5967851 5.0802307 1.4401294
6.0643692 5.0802307 1.4454356
8.2050982 5.0802307 1.4440131
6.3499126 5.3099232 1.4496214
6.4649124 5.4400978 1.4446088
6.0608773 5.760231 1.446046
6.3499126 5.7696495 1.4486402
5.8849125 5.8514571 1.4486127
14.439928 5.9865379 1.4496087
6.4649124 6.1549625 1.4472736
14.67993 6.2154179 1.4480219
-0.072383277 6.2202301 1.4438052
-0.0045108385 6.2202301 1.4407684
0.46180597 6.2202301 1.44713
0.54056078 6.2202301 1.4494984
0.78243726 6.2202301 1.4478346
0.93367827 6.2202301 1.4409084
0.94645327 6.2202301 1.4436195
0.96334738 6.2202301 1.4480706
1.1842157 6.2202301 1.4454107
1.3135231 6.2202301 1.444813
4.5699272 6.2361498 1.4497594
0.1199131 6.2460213 1.4475554
3.1399136 6.3030486 1.441751
1.6649284 6.355875 1.4425623
0.1199131 6.3716335 1.4485722
6.3499126 6.458899 1.4495869
0.32388878 6.4602299 1.446003
0.45012695 6.4602299 1.4468404
1.4249287 6.5367332 1.4496742
5.8849125 6.5305657 1.4401395
0.92360735 6.5402298 1.44958
2.8999138 6.5502768 1.4494137
4.5699272 6.5553346 1.4419293
3.1399136 6.5646219 1.4416771
9.3499126 6.5637903 1.440026
4.5699272 6.5788469 1.4490497
1.3449287 6.6004424 1.4420776
5.9999123 6.6926308 1.4458895
6.4649124 6.7464886 1.4461353
0.1199131 6.7788363 1.4407843
4.4010243 6.7802315 1.4417669
4.6908216 6.7802315 1.444211
5.9183192 6.7802315 1.4451044
6.2147737 6.7802315 1.4402744
7.3980436 6.7802315 1.4438221
7.614274 6.7802315 1.446846
7.6782646 6.7802315 1.4463712
8.5062723 6.7802315 1.4440756
9.0353765 6.7802315 1.444783
9.4264259 6.7802315 1.447314
9.4419985 6.7802315 1.4423945
10.412962 6.7802315 1.4488852
12.408818 6.7802315 1.4457583
12.907042 6.7802315 1.4419234
13.321098 6.7802315 1.4443932
13.424962 6.7802315 1.4461825
13.450992 6.7802315 1.4403412
13.656086 6.7802315 1.4491667
1.4249287 6.839581 1.4416188
1.4249287 6.9631147 1.4421426
1.6649284 7.0147843 1.4488226
3.5933712 7.0202312 1.4444463
4.8458686 7.0202312 1.4471579
5.4024224 7.0202312 1.4422866
5.8713169 7.0202312 1.4408473
6.1784201 7.0202312 1.4448488
6.7214165 7.0202312 1.448163
7.1591883 7.0202312 1.4431523
7.3704247 7.0202312 1.4472374
7.4839592 7.0202312 1.4463289
