# .PCD v0.7 - Point Cloud Data file format
VERSION 0.7
FIELDS x y z
SIZE 4 4 4
TYPE F F F
COUNT 1 1 1
WIDTH 1441
HEIGHT 1
VIEWPOINT 0 0 0 1 0 0 0
POINTS 1441
DATA ascii
6.5933681 6.8802299 -0.083320096
6.7540503 6.8802295 -0.083346978
7.4801254 6.8802299 -0.08495684
7.7777753 6.8802299 -0.083625838
9.1360083 6.8802299 -0.084695309
10.138044 6.8802299 -0.08395914
10.566218 6.8802299 -0.089006595
11.014258 6.8802299 -0.086400479
11.48476 6.8802299 -0.083477259
12.568377 6.8802299 -0.085871756
13.152365 6.8802299 -0.086344622
13.693244 6.8802299 -0.085535035
13.726429 6.8802299 -0.083621986
1.3449287 6.9666328 -0.085430786
1.4599285 7.0387187 -0.089473099
1.4599285 7.2530293 -0.085930787
1.4442377 7.2902298 -0.083147235
-8.7738037e-05 7.3983068 -0.086938784
-8.7738037e-05 7.4226632 -0.081845894
-8.773803e-05 7.4844255 -0.08911074
14.679929 7.5590525 -0.088785365
0.23991396 7.5720611 -0.081894092
-8.7738037e-05 8.1692705 -0.089493483
5.5417337 8.1602287 -0.081010558
5.5699139 8.1672144 -0.088777348
6.6383042 8.1602287 -0.086390451
6.7261019 8.1602287 -0.086273424
9.7513151 8.1602287 -0.082076244
8.7875824 8.2752285 -0.085138559
10.022164 8.2752285 -0.083910346
9.8099108 8.3712721 -0.080415189
4.1399136 8.3984079 -0.085026219
0.30283219 8.4902287 -0.085217074
6.7099133 8.5011482 -0.089281
0.23991394 8.513649 -0.084635958
5.5699139 8.5243092 -0.081768066
4.139914 8.5398703 -0.08537446
10.049913 8.6827202 -0.088141978
9.8099117 8.7000875 -0.080354258
1.3449287 8.7323103 -0.089444414
0.44335142 8.7602282 -0.088498011
1.3908799 8.7602291 -0.082410336
1.9153509 8.7602291 -0.087459296
2.3661966 8.7602291 -0.085147694
2.5245085 8.7602291 -0.085925624
3.5536921 8.7602291 -0.083975837
5.4878073 8.7602291 -0.082339332
6.2182646 8.7602291 -0.082917631
4.1399136 8.8308239 -0.083103731
5.4549122 8.8315468 -0.084325731
6.5949135 8.83636 -0.086066052
0.23991393 8.8498354 -0.08367227
6.5949135 8.8554058 -0.08934021
9.8099117 8.8632755 -0.084552862
0.82154596 8.8752289 -0.081991658
0.94208336 8.8752289 -0.087847814
1.2187917 8.8752289 -0.089935765
2.1052065 8.8752289 -0.087608978
3.0880895 8.8752289 -0.081386089
3.1555307 8.8752289 -0.080795854
3.4527094 8.8752289 -0.086297937
3.5567834 8.8752289 -0.087960713
5.669282 8.8752289 -0.082743481
6.1369877 8.8752289 -0.083245434
6.4517741 8.8752289 -0.082107693
6.6753683 8.9752293 -0.084487535
4.1399136 8.9974489 -0.086094409
-8.7738037e-05 9.0140476 -0.081478715
14.67993 9.0769215 -0.082849458
9.8099117 9.1048031 -0.081976242
14.67993 9.115201 -0.085307062
14.439928 9.2447367 -0.08422412
0.23991394 9.266777 -0.081117943
10.049913 9.2686596 -0.08415103
-8.7738037e-05 9.4196682 -0.083653837
9.8099117 9.4177246 -0.080117956
4.2549133 9.4932995 -0.082986534
9.8099108 9.6227913 -0.085546911
9.8099117 9.6604691 -0.083860599
-8.7738037e-05 9.7837906 -0.088075384
5.6840205 9.9752293 -0.080755994
6.4088802 9.9752293 -0.084288366
9.8099117 10.009961 -0.086278453
0.23991394 10.050934 -0.085433759
6.5949135 10.052664 -0.081677049
5.9108548 10.090229 -0.0899067
6.7099133 10.120166 -0.086899847
-8.7738037e-05 10.170193 -0.082116172
5.5799122 10.186012 -0.08259476
5.5799122 10.195811 -0.083887257
14.67993 10.241907 -0.08689256
9.8099117 10.294062 -0.087953575
-8.7738037e-05 10.347679 -0.088351034
6.7099133 10.353899 -0.088488281
9.8099117 10.405686 -0.080634572
6.7099133 10.411685 -0.084986493
0.23991394 10.462626 -0.086302422
10.049913 10.529085 -0.085219897
9.8099117 10.584284 -0.083421826
14.67993 10.585687 -0.086488545
3.2549133 10.61515 -0.089482173
14.67993 10.630836 -0.089864254
3.2549133 10.640915 -0.082941651
3.5644703 10.69023 -0.080192849
5.2641096 10.690229 -0.085328683
5.7969127 10.690229 -0.081873201
6.2000828 10.690229 -0.082337141
5.6949139 10.848047 -0.085959166
3.2549131 10.909176 -0.080101475
9.8099117 10.921755 -0.089972466
6.7099137 11.070278 -0.087783918
6.2447562 11.10523 -0.085254773
3.1399136 11.34514 -0.08769682
3.2549133 11.401815 -0.086545922
0.23991394 11.449636 -0.080457509
10.049913 11.440495 -0.085067958
3.1399136 11.573021 -0.081946582
3.1399136 11.651594 -0.081171401
6.5949135 12.069881 -0.086556718
6.5949135 12.073196 -0.086015701
-8.7738037e-05 12.157868 -0.085052714
0.23991394 12.203016 -0.084274158
10.049913 12.301299 -0.0885102
3.1399136 12.346451 -0.080842018
-8.7738037e-05 12.351384 -0.08283709
-8.7738037e-05 12.499106 -0.086559683
0.11001769 12.96023 -0.080123678
1.4705311 12.960231 -0.08474689
6.0743494 12.96023 -0.083586007
6.1230245 12.96023 -0.08826755
6.6484823 12.96023 -0.089701869
7.0258737 12.960229 -0.083370432
9.3536282 12.96023 -0.080656044
9.564992 12.96023 -0.087609962
9.8610401 12.96023 -0.089300252
-8.7738037e-05 12.996222 -0.089245886
9.1199131 13.021468 -0.084364198
1.4999123 13.073421 -0.083885744
2.5499134 13.177866 -0.080434546
2.5499134 13.200041 -0.088186271
2.8994977 13.20023 -0.085108459
5.8558226 13.20023 -0.08464276
6.1229472 13.20023 -0.086996235
9.8099117 13.307207 -0.083426416
10.049913 13.710985 -0.08172477
10.332657 13.81023 -0.088243283
10.049913 13.938091 -0.087242723
14.439928 13.937784 -0.086435713
14.004919 13.959684 -0.081048608
14.679931 14.015657 -0.08033748
14.423238 14.05023 -0.082429655
14.651217 14.050231 -0.083077781
0.59403622 0.00022888184 -0.074281678
3.0786481 0.00022888184 -0.075676575
3.1546516 0.00022888184 -0.072348282
4.9449139 0.0061471025 -0.072088003
5.1958923 0.00022888184 -0.075983047
5.2429862 0.00022888184 -0.075082667
5.6768637 0.00022888184 -0.078915715
5.9672117 0.00022888184 -0.079255171
6.4104137 0.00022888184 -0.070641644
8.114646 0.00022888184 -0.076082572
8.7922001 0.00022888184 -0.071740486
9.2651987 0.00022888182 -0.075681902
10.764992 0.00022888184 -0.073905602
14.598425 0.00022888184 -0.072418749
0.23991394 0.062888935 -0.078541249
0.23991394 0.12277137 -0.07043834
4.9449139 0.12648612 -0.078677773
11.419929 0.17200965 -0.079260327
6.8999138 0.19151078 -0.075708471
0.50448596 0.24022865 -0.075447656
2.7733116 0.24022865 -0.078862011
3.1042433 0.24022865 -0.079169467
3.3325553 0.24022865 -0.073563486
5.0078235 0.24022865 -0.078834876
5.2164898 0.24022865 -0.072337955
5.6222095 0.24022865 -0.073733717
5.6415567 0.24022865 -0.076114327
5.8104277 0.24022865 -0.071040183
6.4090595 0.24022865 -0.075814515
6.6087508 0.24022865 -0.077463523
8.707819 0.24022865 -0.075808242
10.270554 0.24022865 -0.077872053
10.352812 0.24022865 -0.072185203
10.779997 0.24022865 -0.075673014
3.1399136 0.295661 -0.072920881
14.67993 0.32134929 -0.072115116
9.7515583 0.3430368 -0.078781679
9.5115566 0.38973808 -0.074517116
9.7515583 0.40710068 -0.078602135
14.439928 0.4280493 -0.071792901
0.23991394 0.54729974 -0.077507317
14.439928 0.77620298 -0.076373219
-8.7738037e-05 0.85651129 -0.079622991
6.0524139 0.88606316 -0.074400142
9.7515583 0.91701895 -0.070136093
14.67993 0.95883518 -0.070554711
6.2524128 1.0460052 -0.078491978
2.8999138 1.1172633 -0.078417301
9.5115566 1.1624031 -0.077623904
6.2524128 1.2399698 -0.078620248
9.7515583 1.290097 -0.074268311
14.679929 1.3836633 -0.077920601
3.1399136 1.8710181 -0.074506968
2.8999138 1.9705347 -0.0735825
6.0949135 2.0316222 -0.078270569
9.5115566 2.0308158 -0.076236144
3.2199135 2.052032 -0.072128572
9.7515583 2.0705516 -0.071853824
14.67993 2.1617479 -0.078342415
6.2099133 2.1960094 -0.07660307
6.0949135 2.2219658 -0.079606414
6.2099133 2.2414985 -0.073766306
3.2199135 2.4095376 -0.077717319
9.5115566 2.4069829 -0.078118585
14.67993 2.4115887 -0.073489919
6.0949135 2.5109963 -0.077654168
3.1399136 2.5497961 -0.072089419
14.67993 2.545594 -0.078892253
9.5115566 2.5684052 -0.074632652
0.23991394 2.596494 -0.07409139
6.0949135 2.6170304 -0.071924232
14.439928 2.6191506 -0.071130157
3.1399136 2.7179132 -0.079030491
14.439928 2.7726808 -0.070331872
14.521793 2.8202283 -0.071029231
3.1399136 2.8505945 -0.070768744
9.5115566 2.9186132 -0.076195352
6.2099133 2.9371428 -0.078178398
9.7515583 2.981982 -0.079724349
-8.7738037e-05 3.0360811 -0.079365522
3.1399136 3.1303179 -0.079840913
3.2199135 3.1369071 -0.078581616
9.5115566 3.3182757 -0.075224325
6.0949135 3.3373325 -0.073552996
5.4370689 3.5079632 -0.070811443
6.00631 3.5079632 -0.072753921
8.6387959 3.5079632 -0.072125249
8.8760786 3.5079632 -0.073152333
9.5240364 3.5079632 -0.075563528
9.6862326 3.5079632 -0.078284293
0.23991394 3.5370395 -0.073989406
7.8099136 3.5822458 -0.071737587
4.4099121 3.6122556 -0.078189284
3.561038 3.622963 -0.074788921
5.670238 3.622963 -0.075349949
6.5270262 3.622963 -0.076112002
8.1624737 3.622963 -0.070083931
8.20473 3.622963 -0.070179142
8.2293692 3.622963 -0.072211206
8.413662 3.622963 -0.071247742
9.3367405 3.6229632 -0.070476539
9.3499126 3.6229715 -0.07691732
-8.7738037e-05 4.0542722 -0.076545216
0.23991394 4.0764494 -0.072329439
-8.7738037e-05 4.1856699 -0.07814604
3.1399136 4.2495861 -0.0758797
-8.7738037e-05 4.4249554 -0.073593013
2.8999138 4.6606035 -0.072685584
1.3237692 4.6802292 -0.070884667
1.4849775 4.6802292 -0.071503907
2.1951878 4.6802292 -0.075780772
2.8999138 4.7588916 -0.071248814
5.4732342 4.7527294 -0.079821967
6.444746 4.7527294 -0.071987003
8.6725702 4.7527294 -0.075285405
9.2258072 4.7527289 -0.07848981
7.3649139 4.8179727 -0.075127557
9.2349148 4.8217583 -0.07040786
3.1399136 4.8501368 -0.070903026
5.0761485 4.8677292 -0.076760679
6.8050175 4.8677292 -0.074495219
6.8936429 4.8677292 -0.070692569
7.0485802 4.8677292 -0.075224146
8.5785122 4.8677292 -0.079486951
8.8926888 4.8677292 -0.073094495
9.032773 4.8677292 -0.07569883
9.3499126 4.8777914 -0.077356786
0.17530523 4.8802299 -0.071992442
1.0235484 4.8802299 -0.079099976
1.1092851 4.8802299 -0.072302349
1.691134 4.8802299 -0.075875223
2.0435343 4.8802299 -0.072869062
2.423795 4.8802299 -0.070315219
4.5699272 4.9091949 -0.076748595
2.8999138 4.9131136 -0.076439418
5.9999123 4.9208736 -0.072073162
6.3499126 5.290566 -0.070577703
9.2349148 5.4018183 -0.074922279
6.3499126 5.5050387 -0.077512838
9.2349148 5.5680966 -0.079668403
6.4649124 5.5759869 -0.077814639
14.439928 5.5718484 -0.071806595
6.3337259 5.6202297 -0.071068361
6.3499126 5.7009377 -0.073884413
6.2552276 5.7402282 -0.076180592
6.3499126 5.7865734 -0.07859195
3.0313201 5.9852295 -0.075656995
3.1399136 6.0217776 -0.070377208
0.3930172 6.0802288 -0.076012574
0.90410727 6.0802288 -0.076362647
1.0064465 6.0802288 -0.079865858
1.3272358 6.0802288 -0.079757601
9.2349148 6.150743 -0.070358962
4.684927 6.1641722 -0.071687572
1.6649284 6.1753407 -0.075456858
0.27514353 6.3202286 -0.079254746
14.67993 6.4315524 -0.07234484
1.6649284 6.4458733 -0.074488506
14.67993 6.4966793 -0.079786912
1.4249287 6.6397877 -0.079853348
2.8970098 6.6402302 -0.078793406
2.9326262 6.6402302 -0.075159937
3.5518122 6.6402302 -0.075212568
3.5761697 6.6402302 -0.07948795
4.5819468 6.6402302 -0.074087709
6.5523376 6.6402302 -0.077456951
6.6850181 6.6402302 -0.077224068
8.3968706 6.6402302 -0.074349776
8.6755238 6.6402302 -0.070327863
9.5166073 6.6402302 -0.071730338
10.802893 6.6402302 -0.076500714
11.332037 6.6402302 -0.07401678
11.903225 6.6402302 -0.078032628
14.413763 6.6402307 -0.07967075
1.4249287 6.6827054 -0.070950419
1.4249287 6.691576 -0.077685207
14.439928 6.7258816 -0.070374332
1.3449287 6.7431917 -0.076535836
14.439928 6.751689 -0.071245596
1.6649284 6.7819977 -0.075473353
1.4249287 6.8787508 -0.0749503
14.439928 6.8755207 -0.070702419
3.1838994 6.8802299 -0.078695044
3.62549 6.8802299 -0.07187143
3.7826376 6.8802295 -0.077899233
3.8021569 6.8802304 -0.072321974
5.0270844 6.8802299 -0.075041369
5.4620013 6.8802299 -0.070439428
5.5888796 6.8802299 -0.07421492
5.6567516 6.8802299 -0.071187735
6.3141685 6.8802299 -0.072289377
6.4077754 6.8802299 -0.074099496
6.5846839 6.8802299 -0.072165109
8.1097069 6.8802299 -0.078563541
8.954793 6.8802299 -0.076870941
9.1032419 6.8802299 -0.075866193
10.006732 6.8802299 -0.078838535
10.518785 6.8802299 -0.07030566
10.823003 6.8802299 -0.071721017
11.891907 6.8802299 -0.0769412
12.16842 6.8802299 -0.071446404
13.830442 6.8802299 -0.075182147
1.4249287 6.9531159 -0.07372652
1.4024372 6.9602299 -0.077969939
0.23991394 7.2002449 -0.077625573
14.67993 7.5743279 -0.073293358
0.23991394 7.7426577 -0.074272782
1.4599285 8.0700884 -0.070265174
5.4846468 8.1602287 -0.074711286
6.6318994 8.1602287 -0.078802571
6.8430414 8.1602287 -0.076015815
7.63486 8.1602287 -0.076056175
8.5069065 8.1602287 -0.079600528
9.3190298 8.1602287 -0.070704244
6.6335578 8.2752285 -0.079837881
7.6999102 8.2752285 -0.076945812
7.8138695 8.2752285 -0.074529931
8.7483044 8.2752285 -0.075293601
9.1245699 8.2752285 -0.073936813
9.9054937 8.2752285 -0.076111436
10.049913 8.3374052 -0.071127579
5.5699139 8.3846903 -0.07580664
9.8099127 8.4437513 -0.074557252
1.4599285 8.4938135 -0.070797488
5.4549122 8.4902248 -0.072586805
0.23991394 8.540226 -0.072217643
1.4599285 8.568079 -0.074520767
0.38991356 8.5871735 -0.071152553
0.26219416 8.6102295 -0.072343633
0.36365336 8.6102295 -0.076503977
4.1399136 8.6350555 -0.071341977
1.4599285 8.6422014 -0.073816404
-8.7738037e-05 8.6545115 -0.073336802
14.67993 8.7107363 -0.0766242
0.39135343 8.7602291 -0.078792341
0.81035304 8.7602291 -0.073234491
1.3238666 8.7602291 -0.072621509
1.3876277 8.7602291 -0.073132604
1.6257869 8.7602291 -0.079601489
2.1961894 8.7602291 -0.071875721
2.222043 8.7602291 -0.076878689
2.7785819 8.7602291 -0.07575772
3.6423182 8.7602291 -0.079373226
4.0228806 8.7602301 -0.078935109
5.7845788 8.7602291 -0.073193148
6.3541574 8.7602291 -0.075558349
6.4556937 8.7602291 -0.076341271
0.23991394 8.8555851 -0.078776918
4.2549133 8.8500767 -0.072728619
0.54048431 8.8752279 -0.07782606
1.797707 8.8752279 -0.072228514
2.7437177 8.8752289 -0.073990203
2.9620955 8.8752289 -0.07341972
3.4948943 8.8752289 -0.072250903
6.200263 8.8752289 -0.072204985
-8.7738037e-05 8.9277487 -0.078245603
0.23991394 8.9238644 -0.077769458
-8.7738037e-05 9.0282764 -0.079923823
4.2549133 9.3050137 -0.071789607
14.67993 9.4196682 -0.073353305
14.439928 9.4684763 -0.078750879
-8.7738037e-05 9.6738415 -0.07605952
9.8099117 9.8312454 -0.074306436
9.8099117 9.8534946 -0.077506527
9.8099117 9.8990307 -0.071624465
14.439928 9.9157534 -0.079906002
-8.7738037e-05 9.9665956 -0.07393495
9.8099117 9.9606791 -0.079806022
5.9275331 9.9752293 -0.072292939
6.1635833 9.9752293 -0.079096824
14.67993 10.151999 -0.0773779
14.439928 10.330769 -0.079431787
14.67993 10.461072 -0.076187655
3.3573878 10.57523 -0.078153357
5.2320766 10.57523 -0.078876533
5.6381559 10.572729 -0.070043832
14.439928 10.572591 -0.075939015
9.8099117 10.60084 -0.070095152
6.7099133 10.641644 -0.073901117
3.1399133 10.650049 -0.071596764
5.1249123 10.662627 -0.073731698
5.5799122 10.666723 -0.070967324
6.5949135 10.673491 -0.074693948
3.5744557 10.690229 -0.07171616
5.3362193 10.690229 -0.074881837
6.0529423 10.690229 -0.074065596
5.5799122 10.711816 -0.072107561
3.2549133 10.734504 -0.074769989
5.5799122 10.740685 -0.073874444
9.8099117 10.931956 -0.071780741
6.5949135 10.959505 -0.074468747
0.23991394 10.985052 -0.07127434
6.2358432 10.990229 -0.07052663
5.754395 11.10523 -0.07282275
5.9387012 11.10523 -0.074173488
6.3418541 11.10523 -0.073156253
6.4204254 11.10523 -0.07518322
3.1399136 11.17284 -0.074621752
10.049913 11.259356 -0.072427891
-8.7738037e-05 11.32825 -0.076021113
6.7099133 11.529929 -0.079334348
-8.7738037e-05 11.597864 -0.074978307
3.2549133 11.705103 -0.074842811
6.7099133 11.778443 -0.076223746
6.5949135 11.884759 -0.071990669
9.8099117 11.972845 -0.075447835
3.1399136 11.987915 -0.079095602
6.7099133 12.217271 -0.07040251
3.2549133 12.397329 -0.076058432
6.5949135 12.420824 -0.077158466
0.23991394 12.527454 -0.079422884
9.8099117 12.533793 -0.076321498
9.8099117 12.543375 -0.079568401
6.5949135 12.691403 -0.076434821
3.2549136 12.86714 -0.075789988
6.7099133 12.908808 -0.071638018
9.8099117 12.928085 -0.072434798
0.6689387 12.96023 -0.07025221
1.1084219 12.96023 -0.078631379
1.3508739 12.96023 -0.077581137
2.9432151 12.96023 -0.07132379
3.2574306 12.96023 -0.078095503
6.5619197 12.96023 -0.079459041
7.088017 12.96023 -0.072546825
9.6505566 12.96023 -0.072489388
9.8099117 12.966543 -0.072973125
10.039757 12.96023 -0.076279998
9.1199131 13.00061 -0.071995258
9.8099117 13.024443 -0.072242983
10.049913 13.023642 -0.071626946
10.049913 13.030962 -0.072701797
2.5499134 13.091453 -0.071799263
-8.7738037e-05 13.10746 -0.071930133
0.80502164 13.20023 -0.075181186
1.0192909 13.20023 -0.079532802
1.0573846 13.20023 -0.071122333
1.1119088 13.200229 -0.076836094
3.1766229 13.20023 -0.070239753
3.7510033 13.20023 -0.070581973
6.1442585 13.20023 -0.070637628
7.0633984 13.20023 -0.074044548
9.574132 13.20023 -0.075121887
14.439928 13.698078 -0.07397525
10.049913 13.999056 -0.075675413
10.046291 14.05023 -0.075664319
10.108546 14.05023 -0.074371159
14.658104 14.05023 -0.072259277
0.03287641 0.00022888184 -0.06241259
0.44658464 0.00022888184 -0.064776294
2.7195935 0.00022888184 -0.065381691
3.1646702 0.00022888184 -0.068723761
9.2258043 0.00022888184 -0.060947832
10.729551 0.00022888184 -0.069890812
4.9449139 0.014515602 -0.069339283
0.23991394 0.2011711 -0.061157413
2.9571815 0.24022865 -0.063427016
3.3619089 0.24022865 -0.068187162
3.6449223 0.24022865 -0.064233564
5.0721693 0.24022865 -0.067978039
6.0160623 0.24022865 -0.066065624
9.116128 0.24022867 -0.069746256
9.4402399 0.24022865 -0.066288307
6.0524139 0.26505494 -0.064422645
6.2524128 0.26039809 -0.067551166
0.23991394 0.31384996 -0.069401577
3.1399136 0.45286766 -0.061553553
6.2524128 0.49566483 -0.06736207
-8.7738037e-05 0.55673468 -0.060669743
3.1399136 0.55683935 -0.060632885
14.439928 0.60175675 -0.060575172
2.8999138 0.80195647 -0.063142985
9.5115566 0.84495646 -0.067537963
14.67993 0.88777751 -0.069154903
6.0524139 0.94568938 -0.065731727
6.2524133 1.0646622 -0.06384398
9.5115566 1.1563749 -0.06763126
3.1399136 1.313252 -0.067993477
9.7515583 1.4062978 -0.067673422
9.7515583 1.5622498 -0.065659001
6.2099133 1.6221148 -0.060439378
6.2099133 1.6672485 -0.067137256
3.1399136 1.6957883 -0.061528254
6.2099133 1.755296 -0.065999091
2.8999138 1.7814217 -0.065772638
2.8999138 1.8150878 -0.063493855
3.1399136 1.8212851 -0.061857782
3.1399136 2.0544643 -0.068389215
6.2099133 2.1418974 -0.06401597
9.7515583 2.1791556 -0.069839589
9.7515583 2.3189037 -0.069320321
3.1399136 2.3796926 -0.062666461
-8.7738037e-05 2.5019996 -0.063051917
-8.7738037e-05 2.6237299 -0.064349115
2.8999138 2.6536701 -0.066248417
9.5115566 2.6800435 -0.068736695
0.23991394 2.8331695 -0.065697782
3.2199137 2.8424134 -0.060912609
3.1399136 2.9289942 -0.067083076
9.7515583 3.1689007 -0.068562604
9.7515583 3.3524466 -0.064325377
6.0949135 3.3734508 -0.060686454
9.7515583 3.4985871 -0.062095169
3.1399136 3.5063972 -0.069194898
3.8358259 3.5079632 -0.061167434
4.3526592 3.5079632 -0.063164189
6.2080469 3.5079632 -0.067438371
8.4759178 3.5079632 -0.061293848
8.7702522 3.5079632 -0.061666474
8.8852634 3.5079632 -0.065906972
8.9749784 3.5079632 -0.066771299
9.2053566 3.5079632 -0.062815078
3.1399136 3.5393786 -0.064134106
-8.7738037e-05 3.5627465 -0.067101285
3.9400382 3.6229632 -0.065131485
4.0346055 3.622963 -0.064014129
4.0993829 3.6229627 -0.067412533
5.8365932 3.6229632 -0.06048362
6.5680203 3.622963 -0.069603994
6.7130837 3.6229627 -0.066069789
8.4625406 3.622963 -0.069489717
8.8845196 3.622963 -0.062762573
9.2920694 3.622963 -0.062949434
9.3226147 3.622963 -0.065724604
2.8999138 3.8366868 -0.066246539
2.8999138 4.0025821 -0.063264422
0.23991394 4.1079421 -0.069826782
3.1399136 4.4228973 -0.065785415
2.8999138 4.4890614 -0.061876282
3.1399136 4.5602365 -0.069587126
2.8999138 4.5852532 -0.062699512
0.23991394 4.6871519 -0.06090112
0.65466845 4.6802292 -0.062755734
3.1399136 4.7501688 -0.060478907
8.2438402 4.7527289 -0.061505452
8.9271927 4.7527294 -0.063583545
2.8999138 4.761651 -0.060050756
4.5699272 4.8044548 -0.061081633
7.3649135 4.8299799 -0.062710129
9.2349157 4.8311701 -0.068177611
4.7928095 4.8677292 -0.062758461
6.0317688 4.8677292 -0.063288458
6.6571913 4.8677292 -0.063799709
6.7561827 4.8677292 -0.068225376
0.26181582 4.8802299 -0.064144164
0.56362176 4.8802299 -0.065249175
0.83307058 4.8802299 -0.062715083
0.9572348 4.8802299 -0.061144657
0.95991325 4.9277 -0.060307395
5.9999123 4.9787302 -0.068488181
6.4649129 5.0711193 -0.065953016
6.3499126 5.3089457 -0.062749319
14.449757 5.5002289 -0.068858653
14.439928 5.5218587 -0.06944833
9.3499126 5.5668578 -0.067679599
6.1257095 5.6202297 -0.065910608
5.9999123 5.6914077 -0.062632643
9.3499126 5.9046693 -0.06081808
6.3499126 5.979816 -0.067868918
2.9189563 5.9852295 -0.06688761
4.684927 6.0522308 -0.062242523
0.75991249 6.062984 -0.066251852
0.50813186 6.0802288 -0.061613202
0.76273358 6.0802283 -0.065621778
0.81049567 6.0802288 -0.065306194
1.043083 6.0802288 -0.062293638
6.4649124 6.0868549 -0.067445785
0.23991394 6.1266952 -0.066484839
14.439928 6.2201843 -0.06495963
6.3499126 6.2948403 -0.0672855
0.96035886 6.3202286 -0.06048505
14.67993 6.3333359 -0.066990644
9.3499126 6.3802357 -0.066012904
-8.7738037e-05 6.4096241 -0.064067751
1.3849686 6.4002285 -0.063383296
14.67993 6.4611912 -0.064383477
14.67993 6.5426302 -0.067633897
2.8999135 6.5611596 -0.064598113
14.439928 6.6036148 -0.069721386
3.4377081 6.6402302 -0.067298695
3.5283532 6.6402302 -0.061008155
3.8296435 6.6402302 -0.067853659
3.9031868 6.6402302 -0.064467683
3.9483099 6.6402302 -0.066438064
4.4556293 6.6402302 -0.065619186
4.6678696 6.6402307 -0.069990337
6.9598145 6.6402302 -0.065774448
8.0264187 6.6402302 -0.068443395
10.455342 6.6402302 -0.069391295
10.6437 6.6402302 -0.060738958
11.128719 6.6402302 -0.064372651
11.886719 6.6402302 -0.06357801
11.961252 6.6402302 -0.063217357
12.282799 6.6402302 -0.060730822
12.531174 6.6402302 -0.069651529
0.23991394 6.7139463 -0.061398685
1.4249287 6.7276249 -0.067566469
-8.7738037e-05 6.8824611 -0.064828545
1.4476576 6.8802299 -0.068706617
3.9233339 6.8802304 -0.061404675
5.5651169 6.8802299 -0.063634053
6.4533939 6.8802299 -0.069793016
10.52247 6.8802299 -0.066855356
10.800155 6.8802299 -0.067180417
10.876326 6.8802299 -0.06826055
13.317292 6.8802299 -0.064463951
13.870538 6.8802299 -0.066561468
1.3736597 6.9602299 -0.062375337
1.4599285 7.0803089 -0.064154491
-8.7738037e-05 7.2111654 -0.066159606
1.3495961 7.2902303 -0.066512302
-8.7738037e-05 7.642117 -0.064877048
14.657325 7.650229 -0.063821822
1.3449287 8.070817 -0.065695241
4.2339025 8.1602287 -0.067251027
7.4656515 8.1602287 -0.068576016
7.4721718 8.1602287 -0.06906864
7.8295393 8.1602287 -0.062652178
10.010434 8.1602287 -0.063977338
1.4599285 8.1830139 -0.061163783
6.7757068 8.2752285 -0.064095177
6.9342546 8.2752285 -0.066551842
7.9530344 8.2752285 -0.068380609
9.0843153 8.2752285 -0.066010021
9.2063742 8.2752285 -0.067596912
9.3481493 8.2752285 -0.067901686
9.5452271 8.2752285 -0.062912509
-8.7738037e-05 8.2917023 -0.069014475
6.7099133 8.3018484 -0.062227681
5.5699139 8.3445082 -0.068253517
0.23991394 8.3680992 -0.060858071
10.049913 8.4317598 -0.069310017
5.5699139 8.4797945 -0.069669217
9.8099117 8.5138941 -0.066292673
9.8099127 8.5628233 -0.069499709
4.1399136 8.5712662 -0.06810309
6.5949135 8.6139965 -0.064833432
1.4599285 8.675004 -0.065425456
0.50991249 8.7266722 -0.065896228
0.38261068 8.7602291 -0.061637841
0.48034418 8.7602291 -0.064229652
2.1583197 8.7602291 -0.069425046
3.6029463 8.7602291 -0.065142304
4.0224071 8.7602291 -0.065061145
5.7411633 8.7602291 -0.061238497
5.918365 8.7602291 -0.064434543
4.2549133 8.7781467 -0.060763441
4.2549133 8.787056 -0.066481903
4.1399136 8.8156834 -0.068921648
6.5949135 8.8672152 -0.062706992
1.6080196 8.8752289 -0.063912645
2.2488828 8.8752289 -0.069990493
2.9453783 8.8752289 -0.068337791
3.4037373 8.8752289 -0.064458877
4.0361748 8.8752289 -0.068154022
5.518528 8.8752289 -0.062465306
4.1399136 8.9247303 -0.069649145
0.23991394 8.9354162 -0.062284917
6.7099133 8.9617987 -0.060572043
14.67993 9.1463261 -0.061172351
-8.7738037e-05 9.1526756 -0.068257868
14.67993 9.1669607 -0.062128633
4.1399136 9.3159542 -0.069564365
14.439928 9.3641758 -0.063157931
14.67993 9.4735222 -0.068272039
14.67993 9.5283689 -0.069681853
14.67993 9.755619 -0.069864467
14.67993 9.7749662 -0.062137723
6.7099133 9.9691954 -0.065865643
5.7281027 9.9752293 -0.062163081
5.8563561 10.090229 -0.061066858
5.9840379 10.090229 -0.061050765
6.4709077 10.090229 -0.063417166
-8.7738037e-05 10.321073 -0.066956237
9.8099117 10.40457 -0.063876018
14.439928 10.463525 -0.061112419
14.439928 10.514537 -0.064230591
10.049913 10.547626 -0.069356151
5.5799122 10.579855 -0.065776333
5.6697602 10.57523 -0.065960824
14.67993 10.653173 -0.063584864
3.7207255 10.690229 -0.067487821
3.1399136 10.723139 -0.064926788
6.7099133 10.723989 -0.063750535
-8.7738037e-05 10.816133 -0.064729244
14.439928 10.899368 -0.06482397
5.6396618 10.990229 -0.066952184
9.8099117 11.019179 -0.066392623
5.8706932 11.10523 -0.069469623
6.2970638 11.10523 -0.063425317
6.3496752 11.10523 -0.062216267
6.5949135 11.187739 -0.063094184
6.7099133 11.271377 -0.069102019
9.8099117 11.361852 -0.069256276
6.7099133 11.383047 -0.069272511
3.2549133 11.42452 -0.065035194
10.049913 11.593341 -0.06983038
6.5949135 11.646292 -0.06004256
-8.773803e-05 11.828537 -0.065744385
3.1399136 11.839458 -0.069995493
6.7099133 11.884003 -0.060230501
3.2549133 12.001339 -0.065789998
0.23991394 12.029629 -0.069007114
6.5949135 12.035508 -0.069791824
6.5949135 12.142576 -0.068980172
6.7099133 12.262672 -0.064243719
9.8099117 12.281758 -0.068279266
0.23991394 12.306107 -0.061602071
0.23991394 12.402304 -0.06863495
9.8099117 12.439225 -0.062923118
3.1399136 12.617122 -0.060923249
9.8099117 12.620152 -0.062252969
0.16875021 12.960231 -0.06186609
2.7299304 12.96023 -0.066671416
2.8145301 12.96023 -0.069505394
2.8610938 12.96023 -0.065508142
3.2969007 12.96023 -0.066615254
9.2238083 12.96023 -0.069734737
9.3425674 12.96023 -0.069398656
9.4286461 12.96023 -0.065638468
1.4999123 13.064539 -0.06423907
1.4999123 13.107244 -0.06656985
7.0999126 13.178961 -0.067804068
0.08957538 13.200231 -0.062773742
1.2738816 13.20023 -0.06265372
2.6555257 13.20023 -0.061914377
4.2230339 13.20023 -0.061717279
9.7981319 13.20023 -0.061844401
9.8099117 13.324283 -0.065644965
14.450848 13.64023 -0.068083651
10.162023 13.81023 -0.065606751
10.182138 13.81023 -0.069331445
14.439928 13.817811 -0.060476292
14.439928 13.83464 -0.06469366
14.004919 13.885668 -0.066825792
14.439928 13.966743 -0.066841513
10.049913 13.985637 -0.067521505
14.439928 13.992119 -0.066820905
10.351753 14.05023 -0.060497656
0.07330434 0.00022888185 -0.051191621
3.2589562 0.00022888184 -0.059923224
3.4234881 0.00022888184 -0.053160891
3.453815 0.00022888184 -0.05190384
3.6659389 0.00022888184 -0.058901869
6.0688949 0.00022888184 -0.054113515
6.5361419 0.00022888184 -0.057159353
8.4357576 0.00022888184 -0.058689468
8.9586201 0.00022888184 -0.054525565
9.438446 0.00022888184 -0.05314954
9.7258415 0.00022888184 -0.053058393
10.498632 0.00022888184 -0.059690733
2.6324139 0.1747928 -0.059505984
3.4056251 0.24022865 -0.054405391
3.7472432 0.24022865 -0.058007956
5.1636872 0.24022865 -0.05812341
6.1340933 0.24022865 -0.053751752
6.3390837 0.24022865 -0.057350606
6.4049978 0.24022865 -0.057493865
8.0179243 0.24022865 -0.053484052
8.2570105 0.24022865 -0.05497399
9.0461988 0.24022865 -0.059475586
10.668755 0.24022865 -0.054918528
10.776843 0.24022865 -0.058256105
11.368914 0.24022864 -0.054071859
14.520864 0.24022865 -0.058727145
0.23991394 0.30901089 -0.050569937
14.439928 0.33173478 -0.054129362
-8.773803e-05 0.4156462 -0.053529292
3.1399136 0.46788573 -0.054402441
6.0524139 0.46890628 -0.054451544
9.7515583 0.49493104 -0.054326616
6.0524139 0.57768011 -0.055689063
9.7515583 0.68213052 -0.059265241
3.1399136 0.82694584 -0.051500991
3.1399136 0.87741292 -0.056936678
14.439928 0.91413975 -0.055100799
9.5115566 0.93965411 -0.059086345
3.2199135 0.99856758 -0.058084629
6.0524139 1.0371611 -0.056192636
3.1399136 1.1817639 -0.054389626
3.1399136 1.2094018 -0.055391803
14.439928 1.2823458 -0.058185443
0.034109235 1.3452301 -0.057233181
6.0949135 1.5007052 -0.057547212
14.439928 1.5501399 -0.059316903
14.679931 1.5977545 -0.055554744
9.5115566 1.6384583 -0.056440249
6.2099133 1.6702908 -0.053384066
3.1399133 1.6923248 -0.051467746
14.67993 1.7229152 -0.055270165
3.2199135 1.744015 -0.059118085
6.2099133 1.8058712 -0.059124917
9.7515583 1.8049611 -0.058400452
9.7515583 1.9264323 -0.055013519
3.2199135 1.9465433 -0.051849745
9.5115566 1.9595073 -0.051914737
2.8999138 2.0196631 -0.058178596
14.67993 2.0667849 -0.056036592
3.1399136 2.0735993 -0.052340582
3.1399136 2.3895097 -0.056632094
3.1399136 2.6322737 -0.053588815
14.439928 2.6517715 -0.053487882
0.23991394 2.8045371 -0.058113784
14.598486 2.8202286 -0.056088999
3.1399136 3.1300676 -0.054218341
9.7515583 3.1452684 -0.053400286
3.1399136 3.2419834 -0.057118401
2.8999138 3.2728162 -0.059545703
9.7515583 3.3760774 -0.052783791
6.0949135 3.4681993 -0.053487115
3.5188131 3.5079629 -0.054704092
3.7107916 3.5079632 -0.053336315
5.4109712 3.5079634 -0.053030372
4.3783469 3.622963 -0.05166401
6.2331004 3.622963 -0.05661504
7.9819107 3.622963 -0.054890383
9.4609976 3.622963 -0.054211214
2.8999138 3.7635634 -0.051196277
2.8999138 3.7847974 -0.051187381
3.1399136 3.9214551 -0.054520752
0.23991394 3.9465609 -0.056529481
2.8999138 3.9637284 -0.056911476
-8.7738037e-05 4.0017948 -0.05005078
0.23991396 4.0285387 -0.053125486
3.1399136 4.1922336 -0.057270765
3.1399136 4.3447347 -0.056133024
3.1399138 4.4314427 -0.051568165
0.23991394 4.4634662 -0.058565844
0.23991394 4.5030708 -0.050884187
0.56986409 4.6802287 -0.056300744
1.9810865 4.6802292 -0.059320964
2.6598001 4.6802292 -0.050374001
2.7702816 4.6802292 -0.05779564
4.684927 4.7566481 -0.051795714
4.7492189 4.7527294 -0.05093243
5.7717123 4.7527294 -0.05858922
5.8000574 4.7527294 -0.052655868
5.8934073 4.7527294 -0.059063368
9.1360512 4.7527294 -0.058290482
3.1399136 4.7880898 -0.056087408
9.2349148 4.8345776 -0.0516752
4.768858 4.8677292 -0.051926035
5.0506268 4.8677292 -0.052890182
5.4722443 4.8677292 -0.05817293
6.4571934 4.8677292 -0.051228307
6.5680313 4.8677292 -0.051594544
1.754351 4.8802299 -0.054968029
2.1123188 4.8802299 -0.052642949
2.6165423 4.8802304 -0.059575021
4.684927 4.8870358 -0.053157926
9.3499126 4.9530687 -0.059534386
0.79753637 4.9652295 -0.058319628
6.4649124 5.080595 -0.052606359
6.4649119 5.348968 -0.05067005
9.2349148 5.4431496 -0.055015773
9.3499126 5.5010929 -0.052281275
6.3499126 5.5690775 -0.054705728
6.3446989 5.6202297 -0.058909837
4.5833941 5.8452301 -0.051953427
14.67993 5.9104605 -0.056442425
4.684927 6.022243 -0.059966862
6.3499126 6.1116467 -0.053670712
1.4249287 6.1366487 -0.050719626
9.2349148 6.1712232 -0.051721081
4.5699272 6.3109732 -0.054951921
0.34697744 6.3202286 -0.051429361
6.4649124 6.3302102 -0.05348992
2.8999138 6.3698921 -0.057430908
14.439928 6.3668127 -0.05021872
1.6649284 6.5177879 -0.057761412
6.3499126 6.5873065 -0.059024356
2.955523 6.6402302 -0.057044718
5.0722623 6.6402302 -0.051112637
7.4094944 6.6402302 -0.05921714
7.7601757 6.6402302 -0.056337558
9.0923157 6.6402302 -0.054075483
9.4902258 6.6402302 -0.051964235
10.502635 6.6402302 -0.05373656
11.306108 6.6402302 -0.05324826
11.534112 6.6402302 -0.058822677
13.036901 6.6402297 -0.055964008
13.132931 6.6402302 -0.056557801
13.846655 6.6402302 -0.050229914
14.266608 6.6402302 -0.054336414
14.67993 6.7360291 -0.050392643
1.6649284 6.7472029 -0.053638723
1.4249287 6.8183961 -0.054799225
-8.773803e-05 6.8297029 -0.057888061
4.7083297 6.8802299 -0.051416367
5.7894716 6.8802299 -0.050824471
6.9665895 6.8802299 -0.05798988
7.2239294 6.8802299 -0.059199944
9.381896 6.8802299 -0.054174013
10.267452 6.8802299 -0.0556527
10.320182 6.8802299 -0.053375784
13.573477 6.8802299 -0.056104105
13.849339 6.8802299 -0.058490805
14.439928 7.4273577 -0.051836565
0.23991394 7.5308356 -0.055807993
-8.7738037e-05 7.6220903 -0.055405185
0.23991394 8.0356512 -0.058213085
1.4103152 8.0602303 -0.055966191
7.4173212 8.1602287 -0.057930298
8.1726398 8.1602287 -0.059009939
8.3412266 8.1602287 -0.050084963
9.1904783 8.1602287 -0.054193623
9.6307049 8.1602287 -0.054051198
-8.773803e-05 8.2442331 -0.056895223
6.7909832 8.2752285 -0.051099055
7.1568761 8.2752285 -0.054133862
8.4620762 8.2752285 -0.059542567
8.8157787 8.2752285 -0.055122867
9.3091354 8.2752285 -0.050173089
9.6738062 8.2752285 -0.055630654
9.8827782 8.2752285 -0.052090645
5.4549122 8.2803478 -0.055554956
4.2549133 8.3900194 -0.057539091
1.3449287 8.4221172 -0.054306954
4.2549133 8.4538746 -0.05912707
9.8099117 8.4846268 -0.055279598
5.5699139 8.5421505 -0.055797711
0.30069202 8.6102295 -0.050411552
4.2549133 8.6375465 -0.0556776
4.2549133 8.6679106 -0.058845483
0.23991394 8.6731663 -0.059486136
5.5699139 8.6759186 -0.054483779
5.5699139 8.7020874 -0.052694548
0.38991356 8.7197008 -0.059772059
0.23991396 8.7334404 -0.052149154
0.23991394 8.7405758 -0.056300096
1.3894402 8.7602291 -0.051346801
1.4565506 8.7602291 -0.055523328
2.2993915 8.7602291 -0.051226251
5.5613828 8.7602291 -0.052691758
5.4549122 8.7884531 -0.051836997
4.2549133 8.8061438 -0.055342264
6.7099133 8.8062611 -0.058853764
9.8099117 8.8459845 -0.059364416
4.2549133 8.8695374 -0.051505625
0.3659218 8.8752289 -0.050988015
1.2909657 8.8752289 -0.052787099
1.3560603 8.8752289 -0.054567017
1.6308644 8.8752289 -0.053828962
3.3800547 8.8752289 -0.054872558
3.5445476 8.8752289 -0.053208128
5.8010898 8.8752289 -0.050446261
9.8099108 8.9158077 -0.053782403
9.8099117 9.067894 -0.050893206
9.8099117 9.1906586 -0.057996605
14.439928 9.21385 -0.054789573
14.67993 9.2262135 -0.0566158
4.1399136 9.3527107 -0.051406626
10.049913 9.373312 -0.053195111
10.049913 9.4780045 -0.053614035
14.439928 9.5293655 -0.050391659
4.2081003 9.5752296 -0.058605783
0.23991394 9.8331966 -0.059263676
6.594914 9.9215393 -0.050066024
14.67993 9.9433651 -0.053315684
-8.7738037e-05 9.9512024 -0.05531273
14.439928 10.014725 -0.057470202
9.8099117 10.022003 -0.051483419
6.5949135 10.035106 -0.059600219
10.049913 10.068022 -0.053606428
-8.7738037e-05 10.124594 -0.059020109
9.8099117 10.125975 -0.057433777
9.8099117 10.136265 -0.055913266
5.6949139 10.204295 -0.058505282
9.8099117 10.347742 -0.056717601
5.6949139 10.4581 -0.051648755
10.049913 10.522034 -0.051843837
4.1399136 10.536119 -0.05197899
5.6949139 10.551275 -0.054446511
5.5068541 10.57523 -0.054465912
5.8577051 10.570229 -0.05949913
6.1731758 10.570229 -0.052150033
6.4845967 10.570229 -0.053461753
4.3549137 10.616341 -0.054877654
5.1925325 10.690229 -0.051211238
5.4013619 10.690229 -0.052276671
9.8099117 10.72261 -0.058719039
-8.7738037e-05 10.745394 -0.058751911
14.439928 10.751842 -0.054442361
14.439928 10.768962 -0.054856107
-8.7738037e-05 10.790319 -0.054084688
5.6949139 10.929688 -0.050025351
14.595047 10.960229 -0.059986807
6.4459453 10.990229 -0.051974934
3.1399136 11.093877 -0.058066286
0.23991396 11.103457 -0.058038667
5.6808715 11.10523 -0.059146166
6.0180559 11.10523 -0.056143254
6.0435333 11.105229 -0.051746145
6.5584841 11.10523 -0.056765981
6.5949135 11.134553 -0.056800231
9.8099117 11.2079 -0.055335745
0.23991394 11.454432 -0.058491156
0.23991394 11.622769 -0.055936322
0.23991394 11.821335 -0.051958848
10.049913 11.855956 -0.058747701
10.049913 11.890291 -0.053437103
9.8099117 12.039913 -0.053693637
3.1399136 12.054827 -0.058029644
10.049913 12.116892 -0.059178725
9.8099117 12.149747 -0.055133507
3.2549133 12.224846 -0.050838992
9.8099127 12.259438 -0.052138597
9.8099117 12.319614 -0.053056568
0.23991394 12.439721 -0.057472393
6.7099133 12.438292 -0.050781649
3.1399133 12.479488 -0.055265173
6.5949135 12.527948 -0.053238735
-8.7738037e-05 12.560822 -0.050024465
3.2549136 12.904345 -0.05941816
0.070987277 12.96023 -0.056477107
0.23070741 12.96023 -0.058971122
0.34782204 12.96023 -0.057389647
0.91481555 12.96023 -0.051753897
1.1075969 12.96023 -0.051858835
1.1422561 12.96023 -0.055040143
3.7589855 12.96023 -0.056534108
4.372313 12.96023 -0.051876601
9.6566095 12.96023 -0.054349266
2.5499134 13.075411 -0.055120531
7.0999126 13.164986 -0.054952003
0.093302935 13.20023 -0.056778859
2.8286955 13.20023 -0.055524886
3.3221292 13.20023 -0.056012899
3.6012366 13.20023 -0.059518754
3.8323848 13.20023 -0.05327861
4.4259233 13.20023 -0.05725646
4.4818034 13.200229 -0.052799687
5.6249695 13.20023 -0.059177421
5.8061695 13.20023 -0.05665319
6.1783838 13.20023 -0.05586597
6.6306396 13.20023 -0.058913842
9.8099117 13.380491 -0.059566829
10.12652 13.81023 -0.050670713
14.168016 13.81023 -0.054437235
9.8099117 13.836442 -0.051407516
14.439928 13.949513 -0.054647379
10.049913 13.98331 -0.059625469
10.049913 14.041192 -0.058488309
14.466135 14.05023 -0.054931436
0.23526028 0.00022888184 -0.048927546
2.9301121 0.00022888184 -0.04928882
3.823473 0.00022888184 -0.048063986
14.62034 0.00022888184 -0.046750546
7.949913 0.021646913 -0.048643503
0.34268659 0.24022865 -0.045363665
3.7289302 0.24022867 -0.048409924
5.5683641 0.24022865 -0.041842371
5.7140112 0.24022865 -0.045430347
6.3692617 0.24022865 -0.04276076
6.4872251 0.24022867 -0.048351139
9.0450859 0.24022865 -0.041336983
9.6767263 0.24022865 -0.04052946
10.414635 0.24022865 -0.044326723
3.1399136 0.3372404 -0.043664873
9.7515583 0.34763539 -0.045478202
6.0524139 0.36883736 -0.04430823
3.2199135 0.74337578 -0.048423469
-8.7738044e-05 0.79281712 -0.042253256
14.67993 0.89736563 -0.046040282
-8.7738037e-05 0.93579191 -0.048960432
9.7515583 0.98156554 -0.040249974
6.2524128 0.99354917 -0.044070955
9.7515583 1.0451905 -0.045033172
9.5115566 1.0769866 -0.04759869
2.8999138 1.0983524 -0.048009701
2.8999138 1.1056434 -0.047963787
3.1399136 1.218357 -0.042277366
0.076913781 1.2402287 -0.045357339
2.8999138 1.3073063 -0.040972412
9.5115566 1.3337517 -0.044754587
0.11993746 1.3452301 -0.043366633
9.5115566 1.5218654 -0.045656282
3.1399136 1.5375667 -0.044226795
3.1399136 1.5731106 -0.045411397
9.7515583 1.6075081 -0.049329922
2.8999138 1.669884 -0.040730149
3.1399136 1.6797615 -0.043080892
9.5115566 1.8498365 -0.040463373
14.439928 2.0594599 -0.042068392
14.439928 2.0873673 -0.045916498
9.7515583 2.1426404 -0.048175432
14.67993 2.1759288 -0.041069068
6.0949135 2.2042282 -0.048046559
14.439928 2.2057149 -0.048278019
2.8999138 2.3530772 -0.042184718
3.2199135 2.3884716 -0.044520501
6.0949135 2.478739 -0.042332523
3.1399136 2.6068339 -0.04313904
0.23991393 2.6522977 -0.042907655
2.8999138 2.6763856 -0.041088961
3.1399136 2.674073 -0.041236013
6.2099133 2.7086198 -0.049403392
14.577406 2.8202286 -0.049172588
-8.773803e-05 2.8514981 -0.047940813
3.2199135 2.8917997 -0.044584587
6.0949135 2.9426417 -0.040895179
9.7515583 2.9548497 -0.040494192
0.23991394 3.0647182 -0.049046032
-8.7738037e-05 3.1105404 -0.048513569
3.1399136 3.1372221 -0.04854542
2.8999138 3.2093987 -0.045371711
9.7515583 3.2053618 -0.042744812
3.1399136 3.2177181 -0.049222097
3.2199135 3.2256982 -0.042218208
9.7515583 3.4303994 -0.048042111
0.23991394 3.4585419 -0.043777317
6.0949135 3.4921238 -0.04303918
3.4298825 3.5079632 -0.046961129
3.9911509 3.5079632 -0.046189699
6.0949135 3.5037847 -0.045571763
8.8766289 3.5079632 -0.045658223
9.0140247 3.5079632 -0.049955804
9.5209227 3.5079632 -0.041081082
3.6675537 3.622963 -0.047473066
5.4950948 3.622963 -0.044329196
5.6123695 3.622963 -0.040246882
8.1888657 3.622963 -0.04942546
8.8027773 3.622963 -0.045276158
3.1399136 3.7130749 -0.048035506
2.8999138 3.9293532 -0.040474042
0.23991394 4.2791748 -0.046388004
-8.7738037e-05 4.3298087 -0.043992072
0.23991394 4.3855739 -0.046742391
-8.7738037e-05 4.6173749 -0.040627584
2.8999138 4.6284809 -0.040236086
2.6553667 4.6802292 -0.046508498
2.8999138 4.7091722 -0.042758569
2.8999138 4.7380872 -0.040355489
5.101655 4.7527294 -0.049392149
5.3753648 4.7527294 -0.045580789
5.9563522 4.7527294 -0.047047138
6.4554024 4.7527294 -0.044391207
6.5542979 4.7527294 -0.049086608
7.1081619 4.7527294 -0.04717458
8.7788248 4.7527294 -0.041000322
5.1252871 4.8677292 -0.048269097
5.4626493 4.8677287 -0.045826975
7.0393872 4.8677292 -0.048545703
0.14993741 4.8802299 -0.040774986
0.5223434 4.8802299 -0.043394107
1.1787242 4.8802299 -0.040680297
1.4932857 4.8802299 -0.043516852
1.5241058 4.8802299 -0.046094522
2.144558 4.8802299 -0.043517455
5.8849125 4.9397621 -0.040939897
0.75994712 4.965229 -0.043945014
6.3499126 4.9656091 -0.049503535
9.2349148 5.2279344 -0.040485531
9.3499126 5.7014112 -0.040856451
4.6336632 5.8452301 -0.040666468
0.95991325 6.0170546 -0.044649124
0.05596035 6.0802288 -0.041720167
0.07318949 6.0802288 -0.045865737
0.084508635 6.0802288 -0.046554886
0.87153101 6.0802288 -0.046398953
1.5681911 6.0802288 -0.04508248
6.3499126 6.1629596 -0.04030481
0.41252515 6.3202286 -0.041762069
1.4077562 6.3202286 -0.042449538
6.4649124 6.3742485 -0.048304442
1.3585917 6.4002285 -0.042657986
6.4649124 6.4477749 -0.045134973
9.2349148 6.4795184 -0.045239076
0.23991394 6.5426841 -0.046269342
1.4249287 6.5695677 -0.040335447
1.7413797 6.6402302 -0.044212334
2.831537 6.6402302 -0.043501578
2.9056218 6.6402302 -0.044602361
3.0386624 6.6402302 -0.046490826
3.8637257 6.6402302 -0.042485937
4.0305657 6.6402302 -0.0485259
4.0612764 6.6402302 -0.049060151
4.368804 6.6402302 -0.040047422
4.6318622 6.6402302 -0.04306522
5.4528866 6.6402302 -0.047639295
5.481298 6.6402302 -0.048253074
6.4022064 6.6402302 -0.040565051
7.4980659 6.6402302 -0.045959763
8.5358524 6.6402297 -0.048109874
8.6966648 6.6402302 -0.049282804
8.9864712 6.6402302 -0.047821809
10.112026 6.6402302 -0.042120021
12.756023 6.6402302 -0.041133437
12.90688 6.6402302 -0.041522041
13.364326 6.6402302 -0.041290123
13.679512 6.6402302 -0.048579264
13.802771 6.6402297 -0.044155512
14.267898 6.6402302 -0.042443402
14.439928 6.6558237 -0.040502764
1.7649136 6.6710234 -0.04356008
1.4249287 6.7062798 -0.048037305
2.7949123 6.734231 -0.040749758
1.4249287 6.8481398 -0.046042535
2.8214893 6.8802299 -0.045925662
4.1705551 6.8802299 -0.040675387
5.8763108 6.8802299 -0.046608895
6.7728009 6.8802299 -0.04214409
8.1145573 6.8802299 -0.047678646
9.7773314 6.8802299 -0.041539375
10.16777 6.8802299 -0.040201455
10.545294 6.8802299 -0.040428706
10.78084 6.8802299 -0.047521081
11.236503 6.8802299 -0.040504072
12.526271 6.8802299 -0.047359839
13.375592 6.8802299 -0.045725573
14.379479 6.8802299 -0.046999939
1.3690368 6.9602299 -0.046923295
1.3449287 7.0702519 -0.042413473
14.439927 7.0966916 -0.044513941
1.3449287 7.1724143 -0.041282125
-8.7738037e-05 7.2021227 -0.044341572
14.67993 7.2662082 -0.041795656
14.439928 7.5485983 -0.040928327
0.23991394 7.6846581 -0.044993043
1.3449287 8.0871468 -0.045666978
7.2437515 8.1602287 -0.046889305
7.7248874 8.1602287 -0.044773892
8.1984158 8.1602287 -0.049252078
8.3777618 8.1602287 -0.044946581
8.9650135 8.1602287 -0.046415858
9.1529446 8.1602287 -0.049010165
9.3323231 8.1602287 -0.042384408
9.950119 8.1602287 -0.045361478
10.024522 8.1602287 -0.048725162
0.23991394 8.1928368 -0.048948459
-8.7738037e-05 8.2760811 -0.049996767
6.6349521 8.2752285 -0.041909151
8.5146866 8.2752285 -0.047376327
1.3449287 8.3353815 -0.04644911
1.4599285 8.331625 -0.047653064
10.049913 8.3698187 -0.045294613
10.049913 8.3759165 -0.045825042
0.23991394 8.3945885 -0.045202047
1.4599285 8.3990784 -0.045330375
1.4599285 8.4032993 -0.049948022
4.1399136 8.4111137 -0.041969456
5.4549122 8.4378166 -0.046440147
0.23991394 8.4845114 -0.047155455
1.3449287 8.5146027 -0.042293265
6.7099133 8.5717649 -0.047741853
0.23991394 8.5941353 -0.046006203
1.3449287 8.6036568 -0.044800878
6.5949135 8.6549263 -0.046271373
0.50991249 8.6621866 -0.047781579
5.4549122 8.6910515 -0.049440831
1.4599285 8.7110252 -0.045940265
9.8099117 8.7195349 -0.042371601
-8.7738037e-05 8.7564249 -0.048305862
0.38058853 8.7602291 -0.04432141
0.44641221 8.7602291 -0.046128184
0.91033596 8.7602291 -0.041818246
1.3469386 8.7602291 -0.048410356
1.5922394 8.7602291 -0.041823342
3.5704195 8.7602291 -0.040750664
5.4769869 8.7602291 -0.046282757
10.049912 8.795867 -0.04107371
0.26128453 8.8752298 -0.049872212
0.34916252 8.8752289 -0.046561398
1.3661413 8.8752289 -0.046522275
1.4785618 8.8752289 -0.045297977
1.8808129 8.8752289 -0.048378486
1.9037211 8.8752289 -0.045033727
6.1807313 8.8752289 -0.043280639
10.049913 8.9709244 -0.048398271
14.439928 9.0263672 -0.04484348
14.67993 9.0306883 -0.045286119
14.67993 9.0570297 -0.04166685
4.2549133 9.0735521 -0.04649087
0.23991394 9.2432995 -0.048607975
4.2549133 9.4350815 -0.041568704
14.67993 9.5947495 -0.043580264
10.049913 9.7541027 -0.042500906
0.23991394 9.7944412 -0.0406764
5.6506166 9.9752293 -0.045658156
0.23991396 9.9871273 -0.042652387
10.049913 10.024071 -0.045715913
6.7099133 10.339812 -0.048788786
14.67993 10.341169 -0.040663525
14.67993 10.362026 -0.044557348
5.6949139 10.492826 -0.044315174
14.67993 10.514369 -0.041850626
5.5799122 10.525689 -0.040392712
4.1314278 10.57523 -0.040295735
5.7401681 10.570229 -0.046324417
3.2549133 10.587433 -0.049348939
3.1399136 10.596424 -0.048119199
5.5799122 10.599542 -0.044362485
5.5799127 10.647952 -0.045406897
3.9285142 10.690229 -0.046887606
5.4948654 10.690229 -0.045653
6.4201355 10.690229 -0.049910367
6.7099133 10.820229 -0.049613774
5.5799122 10.831741 -0.043182731
3.1399136 10.840234 -0.047650881
-8.7738037e-05 10.860956 -0.049501538
14.67993 10.87439 -0.049010903
5.6187677 10.990229 -0.044307485
5.7747111 10.990229 -0.041657224
6.3770971 10.990228 -0.046625957
10.049913 10.995396 -0.046709988
3.2549133 11.029698 -0.04846935
0.23991394 11.060059 -0.047725711
3.1399136 11.077151 -0.04731337
-8.7738037e-05 11.107252 -0.047258727
6.3256516 11.10523 -0.043352991
6.515996 11.10523 -0.046024889
6.5949135 11.169466 -0.0483163
6.5949135 11.20994 -0.048276335
6.7099133 11.233847 -0.041235566
3.1399136 11.333494 -0.048238918
3.2549133 11.370457 -0.044620223
6.5949135 11.40037 -0.043492422
10.049913 11.519787 -0.043183565
9.8099117 11.630333 -0.04119923
0.23991394 11.931692 -0.048651785
3.2549133 12.16053 -0.044900782
10.049913 12.229551 -0.04784276
9.8099117 12.27854 -0.048929602
3.2549136 12.363029 -0.045421429
10.049914 12.428265 -0.046852835
-8.7738037e-05 12.442464 -0.047590509
3.1399136 12.49673 -0.045922935
6.7099133 12.498468 -0.042953007
6.5949135 12.584883 -0.049257889
0.23991394 12.684876 -0.046800002
6.7099133 12.759121 -0.043129615
9.8099117 12.782053 -0.041402169
9.8099117 12.943582 -0.044577923
0.22036526 12.96023 -0.045869857
0.3538751 12.96023 -0.041087627
1.3421619 12.960229 -0.047510009
4.2530007 12.96023 -0.045795985
6.3138247 12.96023 -0.046045274
7.0999126 12.984469 -0.044630051
10.049913 13.013988 -0.049559534
4.6269131 13.09332 -0.048957068
7.0999126 13.093534 -0.047655441
0.10231882 13.20023 -0.049259618
0.35094708 13.20023 -0.045718577
0.82940722 13.20023 -0.049534731
0.88242912 13.20023 -0.047424957
1.3151284 13.20023 -0.048843652
2.5591931 13.200231 -0.049677588
3.3776307 13.20023 -0.047007088
3.9655461 13.20023 -0.049660653
4.5767117 13.20023 -0.042123873
6.1353579 13.20023 -0.040990017
6.4288864 13.20023 -0.045796178
6.6386204 13.20023 -0.045378082
9.6636868 13.20023 -0.047177508
10.049913 13.484173 -0.042112224
14.439928 13.647007 -0.042972848
10.484919 13.937262 -0.04651523
10.049913 14.009725 -0.043973956
14.004919 14.041676 -0.042055286
10.092983 14.05023 -0.047607325
10.436581 14.05023 -0.042002946
0.075823277 0.00022888184 -0.039997287
2.7122846 0.00022888184 -0.033605963
2.7789435 0.00022888184 -0.036246136
5.3794518 0.00022888184 -0.032690238
6.0950041 0.00022888184 -0.036646713
6.7847428 0.00022888184 -0.039339244
8.00144 0.00022888184 -0.031689141
8.1839504 0.00022888184 -0.03276787
9.889904 0.00022888184 -0.039731979
6.8999138 0.10813416 -0.038808551
2.6324139 0.11103847 -0.037970711
0.23991394 0.13138551 -0.030370357
0.23991394 0.18576509 -0.039809242
11.419928 0.23055223 -0.032915205
0.42944893 0.24022865 -0.036686808
2.7717266 0.24022865 -0.037206218
3.471879 0.24022865 -0.039383471
5.0191298 0.24022865 -0.03483358
5.6215343 0.24022865 -0.036389261
5.9444237 0.24022865 -0.038094759
6.561379 0.24022865 -0.030595019
8.1285324 0.24022865 -0.039890841
8.6782684 0.24022865 -0.031474277
8.688324 0.24022865 -0.03745389
9.6924448 0.24022865 -0.035825297
10.871289 0.24022865 -0.032742098
11.326904 0.24022865 -0.035010993
14.499773 0.24022865 -0.038247555
