# .PCD v0.7 - Point Cloud Data file format
VERSION 0.7
FIELDS x y z
SIZE 4 4 4
TYPE F F F
COUNT 1 1 1
WIDTH 1400
HEIGHT 1
VIEWPOINT 0 0 0 1 0 0 0
POINTS 1400
DATA ascii
2.5233746 5.1356325 -0.083842434
3.3559666 5.1356325 -0.081114471
3.9909596 5.1356325 -0.08355552
-3.0697236 5.1498895 -0.084453046
-3.2392955 5.3756323 -0.08970207
-2.3928649 5.3756323 -0.085864693
-2.3182938 5.3756323 -0.086016849
-2.0680344 5.3756323 -0.084882289
-1.768903 5.3756318 -0.088149883
-1.2188295 5.3756323 -0.084498063
-1.112262 5.3756323 -0.081112891
-0.85822594 5.3756323 -0.080424391
0.055998325 5.3756323 -0.088981077
0.53040981 5.3756323 -0.082341366
0.60337389 5.3756323 -0.081751615
0.62193573 5.3756323 -0.089818858
0.91965806 5.3756323 -0.089836016
0.99073625 5.3756323 -0.088334054
1.0284705 5.3756323 -0.089185894
1.61576 5.3756323 -0.084731266
1.6958909 5.3756323 -0.081639633
1.7962853 5.3756323 -0.082157947
1.9738289 5.3756323 -0.083055735
2.4097686 5.3756323 -0.089654058
3.105094 5.3756323 -0.08281628
3.1433673 5.3756323 -0.085182361
3.2967381 5.3756323 -0.083619684
3.3593655 5.3756323 -0.085230529
3.432832 5.3756323 -0.089287557
3.6061437 5.3756323 -0.085484825
-3.1926656 -4.0643673 -0.070000827
-2.789479 -4.0643673 -0.071212478
-2.671855 -4.0643673 -0.077945448
-2.2299063 -4.0643673 -0.076760992
-2.1061766 -4.0643673 -0.075435929
-1.7113121 -4.0643673 -0.071935765
-1.0278488 -4.0643673 -0.078324854
-0.38566655 -4.0643673 -0.073631942
-0.29805011 -4.0643673 -0.075973406
1.3106414 -4.0643673 -0.070744887
1.4863718 -4.0643673 -0.071152404
1.5075072 -4.0643673 -0.077411592
4.6502452 -4.0120521 -0.077212676
3.7102451 -3.9230824 -0.074909627
-3.3097239 -3.840595 -0.073865786
4.4102454 -3.8423858 -0.078172781
3.7102451 -3.8369303 -0.077536166
-2.6998956 -3.8243675 -0.075406149
-2.6492887 -3.8243678 -0.076774895
-2.3225718 -3.8243675 -0.079849601
-1.992408 -3.8243675 -0.074481547
-1.9767545 -3.8243675 -0.071575209
-1.2782472 -3.8243675 -0.076475829
-1.1188815 -3.8243675 -0.078433871
-0.4815414 -3.8243675 -0.079884186
-0.06120795 -3.8243675 -0.070399135
-0.019222319 -3.8243675 -0.071934953
0.012354761 -3.8243675 -0.0795248
0.70361173 -3.8243675 -0.073398829
0.92060494 -3.8243675 -0.07500577
1.0816435 -3.8243675 -0.079412133
1.1724561 -3.8243675 -0.074889362
1.2062044 -3.8243675 -0.07554847
4.6502452 -3.8275499 -0.078618467
0.39024508 -3.799262 -0.078827038
0.21524513 -3.773571 -0.071650356
4.4102454 -3.6347542 -0.079151377
0.21524513 -3.5607603 -0.073434599
-3.3097239 -3.5504439 -0.073103912
0.21524513 -3.4675629 -0.071749836
4.6502452 -3.2912285 -0.075961173
0.21524513 -3.2884116 -0.078891009
4.6502452 -3.2592008 -0.075342938
-2.0697236 -3.2176533 -0.076057851
-3.0697236 -3.0879853 -0.072924137
-2.0697236 -3.0761659 -0.071958855
-1.9547237 -3.037394 -0.073450357
4.4102449 -2.9811687 -0.079641953
-3.0697236 -2.8951893 -0.075745374
-3.3097239 -2.5219352 -0.072391152
0.21524513 -2.4603848 -0.074591041
0.21524513 -2.3843749 -0.075026542
0.39024508 -2.3291411 -0.074420035
-1.9547236 -2.3058641 -0.073103845
-3.3097239 -2.2963881 -0.076484174
-3.3097239 -2.2722576 -0.077249318
0.21524513 -2.2006471 -0.077053487
0.39024508 -2.1802979 -0.078506291
4.4102454 -2.1886754 -0.079623505
-2.0697236 -2.174397 -0.075296849
0.39024508 -1.9391518 -0.079670995
0.39024508 -1.8483307 -0.071951866
-3.3097239 -1.7548481 -0.072589874
4.4102454 -1.6401469 -0.07423088
-2.0697236 -1.6192374 -0.076127589
0.39024508 -1.5326298 -0.074506462
-3.3097239 -1.4609736 -0.079935908
0.21524513 -1.4470202 -0.076542079
-2.0697236 -1.3175327 -0.071220994
-3.3097239 -1.2579089 -0.07677263
4.4102454 -1.2555947 -0.070627302
0.21524513 -1.2076575 -0.079652607
0.39024508 -1.1716156 -0.077785552
4.6502452 -1.1747453 -0.07402879
-0.78475493 -1.1668464 -0.076995254
-0.51941663 -1.1243675 -0.073991463
-0.48789564 -1.1243675 -0.077858031
0.10874771 -1.1243675 -0.071483821
-1.9547238 -1.0846236 -0.072603852
-3.3097239 -1.0554303 -0.075891852
-0.15475488 -0.95446426 -0.076088287
0.39024508 -0.84631741 -0.07331413
0.21524513 -0.72127593 -0.07976386
-0.15475488 -0.70484799 -0.070093781
-0.15475488 -0.58886242 -0.075127363
4.6502452 -0.50778699 -0.070705771
-3.0697236 -0.41286349 -0.073743343
4.4102454 -0.38067222 -0.078606874
0.39024508 -0.34087512 -0.078677118
4.6502452 -0.23989487 -0.077668309
-2.0697236 -0.20620106 -0.076163679
-2.0697236 -0.12536414 -0.077362895
4.6502452 -0.11327982 -0.079919994
-2.0697236 -0.066153578 -0.072515152
-2.0317681 -0.039367437 -0.073753327
-1.9768752 -0.039367437 -0.071050107
-0.94355702 -0.039367437 -0.07657066
-0.8611595 -0.039367437 -0.07139346
-0.14874864 -0.039367437 -0.075432062
-0.11320917 -0.039367437 -0.071655631
-0.10111015 -0.039367437 -0.074506134
0.61949545 -0.039367437 -0.076624751
1.9990753 -0.039367437 -0.072606266
2.1048489 -0.039367437 -0.078769773
-3.0697236 0.022665057 -0.072112739
-0.52523822 0.075632572 -0.075220391
0.35716659 0.075632572 -0.07730943
0.52820718 0.075632572 -0.073330402
0.75093597 0.075632572 -0.072970018
-3.0697236 0.10974625 -0.078953564
2.1552453 0.49283367 -0.076188028
2.1552453 0.84848881 -0.077149481
2.0402451 0.90842146 -0.070091128
-3.3010597 1.0406325 -0.077068031
4.4102454 1.0561792 -0.07531321
-3.0450382 1.1756325 -0.070813768
-2.8252959 1.1756325 -0.070339933
-2.4967935 1.1756325 -0.075425386
-1.6312579 1.1756325 -0.073503941
-1.3947058 1.1756325 -0.072327316
-1.2963502 1.1756325 -0.078928381
-1.2038656 1.1756325 -0.071534097
2.056891 1.1756325 -0.071633086
4.0300336 1.1756325 -0.071719863
4.3136868 1.1756325 -0.076900303
0.83024514 1.221653 -0.075760186
1.7302449 1.2766711 -0.075245574
-2.9977984 1.2906325 -0.078932241
-2.3364854 1.2906325 -0.072560132
-2.1801875 1.2906325 -0.070421249
-1.891643 1.2906325 -0.077747524
0.048177585 1.2906325 -0.07333187
2.4023652 1.2906325 -0.075174809
2.6913774 1.2906325 -0.076748878
3.2295735 1.2906325 -0.079479933
-3.3097239 1.3455939 -0.077881314
4.6502452 1.4071683 -0.074213013
-3.0697236 1.4231396 -0.078673333
0.73024511 1.4587586 -0.074542306
4.4102454 1.5034773 -0.070205569
4.4102454 1.66787 -0.077081501
0.73024511 1.7301753 -0.07012035
4.6502452 1.7356142 -0.073091805
-3.3097239 1.8035511 -0.073264599
4.6502452 1.8474293 -0.077654749
-3.3097239 1.8510777 -0.076101765
0.6152451 1.921253 -0.074746676
4.6502452 2.0316517 -0.074401855
4.6502452 2.1068048 -0.07339856
0.73024511 2.2557125 -0.07433328
4.6502452 2.3187838 -0.071972132
-3.3097239 2.3756797 -0.071077645
0.6152451 2.7559059 -0.079243869
0.73024511 2.7665138 -0.073211133
-3.3097239 2.8520327 -0.079413354
4.4102454 3.0565321 -0.071459085
0.6152451 3.2088826 -0.076028019
0.73024511 3.2133303 -0.075859845
-3.3097239 3.3589385 -0.073561251
4.4102454 3.4184022 -0.078508079
-3.3097239 3.4781017 -0.076730132
0.6152451 3.551584 -0.070749521
-3.0697236 3.6412005 -0.075641364
4.4102454 3.676445 -0.076514542
0.6152451 3.7174745 -0.07818979
-3.3097239 3.8438277 -0.075686753
4.4102454 3.9799504 -0.070123285
-3.0697236 4.1033397 -0.076203585
4.6502457 4.1456938 -0.078062803
0.73024511 4.7222071 -0.07705152
4.6502457 4.7552347 -0.077319533
0.73024511 4.7782679 -0.078419626
-3.0697236 4.8029342 -0.072483838
0.73024511 4.829999 -0.075010955
4.6502452 4.8710575 -0.073446274
4.6502452 4.8983674 -0.07282269
0.73024511 4.9068227 -0.076596752
4.6502452 5.0334988 -0.070190072
-3.3097239 5.1112337 -0.075150117
-2.9775763 5.1356325 -0.07119938
-2.7837095 5.1356325 -0.072821267
-2.5811317 5.1356325 -0.072476201
-2.3761539 5.1356325 -0.073014356
-1.778084 5.1356325 -0.075194135
-1.7366086 5.1356325 -0.07424213
-1.3878077 5.1356325 -0.078817002
-1.1326102 5.1356325 -0.074538946
-0.90620065 5.1356325 -0.076659188
0.21007732 5.1356325 -0.073442176
0.25800556 5.1356325 -0.078167386
0.74064893 5.1356325 -0.074889518
0.77160448 5.1356325 -0.073448405
1.6089019 5.1356325 -0.073954888
2.0689926 5.1356325 -0.071032718
4.3991175 5.1356325 -0.078346312
4.4565396 5.1356325 -0.076131761
-3.3097239 5.2089643 -0.078088269
-2.180202 5.3756323 -0.071580522
-0.98000443 5.3756323 -0.074986458
0.40933776 5.3756323 -0.075374797
1.4741182 5.3756323 -0.073788226
1.9092112 5.3756323 -0.076945841
1.9508967 5.3756323 -0.077633522
2.0604024 5.3756323 -0.073254801
2.143616 5.3756323 -0.075386658
2.9049399 5.3756323 -0.074744999
3.0741498 5.3756323 -0.072044611
3.2262249 5.3756323 -0.078490779
3.577188 5.3756323 -0.077526629
4.2353644 5.3756323 -0.073128231
4.2736931 5.3756323 -0.073946632
-2.4123862 -4.0643673 -0.062765531
-1.9537625 -4.0643673 -0.060397435
-1.9143431 -4.0643673 -0.064833477
-1.3645065 -4.0643673 -0.061063983
0.025170207 -4.0643673 -0.065998562
0.17045444 -4.0643673 -0.062835559
1.2014658 -4.0643673 -0.063249916
1.4229205 -4.0643673 -0.060495339
1.5370576 -4.0643673 -0.067334533
4.2963414 -4.0643673 -0.06982404
4.4102454 -4.0297651 -0.060866728
-3.0697236 -4.0123577 -0.066194221
3.7102451 -3.9945054 -0.061149657
4.4102454 -3.9843841 -0.060853839
3.7102451 -3.9079013 -0.062230766
4.6502452 -3.8699677 -0.06853494
-2.5657725 -3.8243675 -0.066398665
-2.5309393 -3.8243678 -0.066051379
-2.3512132 -3.8243675 -0.060051352
-0.26616278 -3.8243675 -0.067513354
-0.056002349 -3.8243675 -0.068919629
0.12788022 -3.8243675 -0.061671466
0.53919792 -3.8243675 -0.067095518
4.0446062 -3.8243675 -0.061526656
4.6502452 -3.8266702 -0.063320935
-2.0697236 -3.7293389 -0.066086568
4.4102454 -3.6901765 -0.060842846
4.4102454 -3.563971 -0.064390838
-1.9547236 -3.4944715 -0.060277924
0.39024508 -3.4276791 -0.060569078
4.4102454 -3.4142196 -0.067805037
-3.0697236 -3.3632679 -0.064136833
0.21524513 -3.3467584 -0.068010993
-3.0697236 -3.254226 -0.069499522
0.39024508 -3.1964474 -0.066486299
0.21524513 -3.1760657 -0.062460065
-3.0697236 -3.1660166 -0.060680181
-3.0697236 -3.1404073 -0.069284469
-2.0697236 -3.136132 -0.068656668
4.6502452 -3.1267157 -0.065927207
0.21524513 -3.0106256 -0.067258343
4.6502452 -2.9923038 -0.065109462
-3.3097239 -2.7351077 -0.061303377
-3.3097239 -2.6739123 -0.067011803
4.6502452 -2.6493607 -0.063378856
0.39024508 -2.5988519 -0.061927855
-3.0697236 -2.5869138 -0.069064498
-3.3097239 -2.5618412 -0.068376929
4.6502452 -2.5292468 -0.066973299
-1.9547236 -2.5154757 -0.062980592
4.6502452 -2.4549823 -0.065199196
0.21524513 -2.3963995 -0.069487512
4.4102454 -2.3806422 -0.061789811
-3.0697236 -2.3375189 -0.06632483
0.21524513 -2.2765324 -0.06071189
-2.0697236 -2.2579222 -0.060941547
-2.0697236 -2.2255154 -0.064796478
4.4102459 -2.2277751 -0.067602023
0.39024508 -2.1954784 -0.069398761
0.39024508 -2.1134868 -0.069916308
-3.3097239 -2.0731108 -0.064488322
4.4102454 -2.0211496 -0.062646791
0.39024508 -1.981626 -0.066970587
-3.0697238 -1.9762067 -0.063942552
-1.9547238 -1.9743869 -0.069611669
4.6502452 -1.9710217 -0.062798113
-1.9547236 -1.880941 -0.06507054
0.39024508 -1.7434952 -0.069972843
-3.3097239 -1.7301711 -0.060912192
0.39024508 -1.6908139 -0.064770103
4.6502452 -1.5124396 -0.065106452
4.6502452 -1.434973 -0.066392004
-3.3097239 -1.3913403 -0.069330752
-1.9547238 -1.3627732 -0.063940376
-2.0697236 -1.307874 -0.066307247
-0.190505 -1.2393675 -0.066081047
4.4102454 -1.1811846 -0.063615233
-0.65725505 -1.1243675 -0.065817386
-0.55202186 -1.1243675 -0.062629029
-3.0697236 -1.1029963 -0.06098038
-0.034754872 -1.0903195 -0.064037323
-3.3097239 -1.087935 -0.068617672
-0.034754872 -1.046955 -0.066349432
-2.0697236 -0.99141908 -0.067140371
-3.3097239 -0.94032395 -0.060899377
4.4102454 -0.92354631 -0.066846371
-1.9547237 -0.88812739 -0.063220203
-3.0697236 -0.8585425 -0.067683637
0.39024508 -0.8105396 -0.069413081
4.4102454 -0.80869949 -0.06293869
4.4102454 -0.77304995 -0.065365046
-3.3097239 -0.64268637 -0.065045923
-0.15475488 -0.60557371 -0.065770745
-0.15475488 -0.53791887 -0.067275941
-0.034754872 -0.46905515 -0.066731393
4.4102454 -0.35470557 -0.062075853
0.39024508 -0.28024057 -0.061700702
-3.3097239 -0.27370125 -0.06511946
-2.0697236 -0.27231488 -0.06519793
-0.034754872 -0.2448644 -0.063964516
-2.0697236 -0.17945215 -0.065986924
-0.15475488 -0.16347277 -0.061967924
-3.3097239 -0.15924048 -0.069851011
0.21524513 -0.14490548 -0.066928692
0.21524513 -0.062583625 -0.063723259
-0.15475488 -0.052999899 -0.063003831
-0.27648091 -0.039367437 -0.067982018
-1.8571209 0.075632572 -0.064007021
-0.83030838 0.075632572 -0.06594491
0.057337761 0.075632572 -0.066877544
0.92869925 0.075632572 -0.063533664
0.93073028 0.075632572 -0.066169024
4.6502452 0.14192557 -0.068223059
2.0402451 0.22881587 -0.069371529
2.1552453 0.24067724 -0.063660175
2.0402451 0.37154055 -0.060514539
4.6502452 0.60904753 -0.067462742
4.4102454 0.71697521 -0.061665654
2.1552453 0.76988047 -0.062795699
2.0402451 0.85326177 -0.063303739
4.6502452 1.0011661 -0.065968066
2.0402451 1.0377042 -0.067044795
2.0402451 1.0636225 -0.060418516
4.6502452 1.0906799 -0.065486372
4.4102454 1.1348554 -0.069283545
2.1552453 1.141282 -0.063769341
-2.6964219 1.1756325 -0.061196804
-2.5249784 1.1756325 -0.066883117
-2.2444696 1.1756325 -0.062258482
-2.1385469 1.1756325 -0.061332822
-2.071089 1.1756325 -0.064698219
-1.5454952 1.1756325 -0.069991559
-1.5259546 1.1756325 -0.060353473
-0.0074531808 1.1756325 -0.067429245
0.16867265 1.1756325 -0.060529768
0.39442778 1.1756325 -0.065129668
2.3731322 1.1756325 -0.069133192
3.1295848 1.1756325 -0.065146327
4.0331097 1.1756325 -0.069472663
1.7302451 1.2011285 -0.069354236
-0.98475492 1.2350523 -0.066897631
-2.8727937 1.2906325 -0.064037621
-2.3609838 1.2906325 -0.06869331
-2.2983882 1.2906325 -0.066622943
-2.1339064 1.2906325 -0.066356301
-1.7516171 1.2906325 -0.061369121
-1.4528453 1.2906325 -0.060225219
-0.98548239 1.2906325 -0.064060628
0.050447352 1.2906325 -0.062866949
0.50414693 1.2906325 -0.062253773
1.9476562 1.2906325 -0.0611993
4.4102459 1.3367991 -0.06452322
-3.0697236 1.4111145 -0.06255044
4.4102454 1.4224669 -0.069206774
0.6152451 1.4467438 -0.069586366
-3.3097239 1.468266 -0.060203306
-3.3097239 1.5007929 -0.062743872
0.6152451 1.5074747 -0.062763408
4.6502452 1.6083897 -0.067436337
-3.0697236 1.6330721 -0.061122566
-3.3097239 1.7031343 -0.066029876
-3.3097239 1.7224597 -0.061004832
0.6152451 1.7488379 -0.066404283
-3.0697236 1.8035493 -0.06779924
-3.3097239 1.8327138 -0.061162055
4.4102454 1.8397949 -0.06875205
4.6502452 2.2384238 -0.064192712
-3.3097239 2.3840892 -0.068877429
-3.3097239 2.4166794 -0.061654896
0.6152451 2.4291248 -0.064871371
4.6502452 2.7446342 -0.069813967
4.6502452 2.8051462 -0.063145235
4.6502452 2.8380153 -0.068759948
4.4102454 2.9636538 -0.068152428
0.6152451 2.9708257 -0.065406889
4.4102454 3.0251584 -0.061591059
0.6152451 3.0855103 -0.063323736
0.6152451 3.1590438 -0.061458379
4.6502452 3.4099689 -0.069460243
4.6502452 3.5083871 -0.062692568
-3.0697236 3.7447505 -0.061813742
4.6502452 3.7886643 -0.060923882
-3.0697236 3.7942119 -0.061067283
0.73024511 3.926641 -0.06519565
-3.0697236 4.0304933 -0.067653716
0.73024511 4.1823435 -0.063073382
-3.3097239 4.4547868 -0.066507578
4.4102454 4.7359095 -0.062616266
0.73024511 4.8086305 -0.066107035
0.73024511 5.0359907 -0.066197775
-2.803267 5.1356325 -0.061907303
-2.566231 5.1356325 -0.061410647
-1.6907421 5.1356325 -0.06522496
-1.3368971 5.1356325 -0.065943688
-0.58641016 5.1356325 -0.065276824
-0.22998582 5.1356325 -0.064221814
0.25284165 5.1356325 -0.061843835
0.61461568 5.1356325 -0.067143135
1.0566622 5.1356325 -0.065298654
1.2063907 5.1356325 -0.060544468
1.3970749 5.1356325 -0.06577453
2.7880743 5.1356325 -0.068783902
3.7011898 5.135632 -0.060341675
3.7615991 5.1356325 -0.06976252
-3.0697236 5.2401991 -0.060258195
-3.0697236 5.3299108 -0.069975257
-3.3097239 5.3461185 -0.062918104
-3.0542691 5.3756323 -0.060303871
-2.3987381 5.3756323 -0.063883446
-1.1073129 5.3756323 -0.065950185
-0.42778897 5.3756323 -0.065637521
-0.17502511 5.3756323 -0.063386627
0.54062533 5.3756323 -0.068469457
0.60514665 5.3756323 -0.065214947
1.0325165 5.3756323 -0.068392769
2.57306 5.3756318 -0.062814489
2.7401404 5.3756323 -0.063587606
2.7552569 5.3756323 -0.065150402
3.6046507 5.3756328 -0.06771148
4.3437376 5.3756323 -0.068462178
4.3904586 5.3756323 -0.060132526
4.4252648 5.3756323 -0.06405694
4.480999 5.3756323 -0.064069428
-1.1433191 -4.0643673 -0.059550937
-1.133996 -4.0643673 -0.053371884
-1.1131428 -4.0643673 -0.058545638
-0.9355607 -4.0643673 -0.052501835
-0.29007459 -4.0643673 -0.056703016
0.18670213 -4.0643673 -0.05362178
0.33451998 -4.0643673 -0.054660667
0.4182328 -4.0643673 -0.05250885
0.87932348 -4.0643673 -0.058096197
1.2407032 -4.0643673 -0.050520316
1.6702387 -4.0643673 -0.0536137
3.7325253 -4.0643673 -0.055776298
3.7422831 -4.0643673 -0.059691131
4.336659 -4.0643673 -0.056350589
4.4551625 -4.0643673 -0.056231767
4.6502452 -4.0242968 -0.052657709
1.6802452 -3.9930983 -0.051644742
3.7102451 -3.9178433 -0.050939023
4.4102454 -3.9065809 -0.053965956
-3.0697236 -3.8404546 -0.053187326
-2.5479238 -3.8243675 -0.054670442
-2.3950348 -3.8243675 -0.052563101
-2.2822294 -3.8243675 -0.052691836
-2.221859 -3.8243675 -0.050013967
-2.1841509 -3.8243673 -0.053362101
-0.3521837 -3.8243673 -0.059660241
0.36627701 -3.8243675 -0.057710707
1.0521134 -3.8243675 -0.051249355
3.8634582 -3.8243675 -0.051645324
4.2515273 -3.8243675 -0.054917663
0.21524513 -3.8072515 -0.057882745
4.6502452 -3.5961456 -0.05695422
-1.9547236 -3.460712 -0.058488727
-1.9547238 -3.2726104 -0.050361693
-1.9547238 -3.1641922 -0.059853852
4.4102454 -3.145853 -0.054682788
0.39024508 -3.0591898 -0.059619308
4.6502452 -3.00214 -0.058323205
-2.0697236 -2.9929814 -0.051776156
-3.0697236 -2.9817002 -0.052645534
4.4102459 -2.9378729 -0.054766007
0.39024508 -2.8092496 -0.057925493
-2.0697236 -2.7128038 -0.054369867
0.21524513 -2.6719575 -0.055651188
0.39024508 -2.6665308 -0.056168199
4.4102454 -2.5756612 -0.055674732
0.21524513 -2.5654824 -0.053463548
-3.0697236 -2.5397105 -0.052714467
0.21524513 -2.3712788 -0.056954414
4.6502452 -2.3618183 -0.05234009
-2.0697236 -2.3282037 -0.057917684
-3.0697236 -2.3023236 -0.051621139
-2.0697236 -2.1848607 -0.0529432
-2.0697236 -2.0642862 -0.052168459
-3.0697236 -1.8329022 -0.05499205
-2.0697236 -1.7960186 -0.058878362
4.6502452 -1.7197268 -0.056797177
0.21524513 -1.6206281 -0.053170681
-1.9547238 -1.5607088 -0.053799689
0.21524513 -1.5350622 -0.059201896
-3.3097239 -1.5299497 -0.053521812
0.21524513 -1.4231662 -0.055996239
-3.3097239 -1.3162893 -0.055418909
-0.72779799 -1.2393675 -0.054928146
0.14794558 -1.2393675 -0.057714961
0.21524513 -1.1884172 -0.051250696
-3.0697236 -1.1044822 -0.054863751
-1.9547237 -1.0689688 -0.0543423
-0.15475488 -0.97228634 -0.056767732
0.39024508 -0.86992258 -0.057682946
0.39024508 -0.85514343 -0.054846495
-0.034754872 -0.80548722 -0.058664501
-2.0697236 -0.77110028 -0.054966748
-0.15475488 -0.57895374 -0.058107555
4.4102454 -0.51165521 -0.051879525
4.4102454 -0.5043751 -0.057691127
0.39024508 -0.46203822 -0.054423198
4.6502452 -0.37508941 -0.050368607
-2.0697236 -0.36080292 -0.054436713
0.39024508 -0.26717335 -0.059306566
-3.3097239 -0.25613323 -0.050545394
-0.15475488 -0.24414881 -0.05061093
0.21524513 -0.20102233 -0.05742804
-3.0697236 -0.14422396 -0.053748131
-3.0697236 -0.1296252 -0.051856577
0.21524513 -0.044528347 -0.058189042
-2.0697236 -0.035127312 -0.05565099
-1.9787991 -0.039367437 -0.053944767
-1.8547237 -0.035491899 -0.051388059
-0.045927584 -0.039367437 -0.055159509
0.3148278 -0.039367437 -0.057492167
0.99559444 -0.039367437 -0.050657213
1.0292506 -0.039367437 -0.058429521
1.0343946 -0.039367437 -0.058320455
-1.0847237 0.068076268 -0.059176005
-0.38427603 0.075632572 -0.059408695
0.25212979 0.075632572 -0.055207431
2.0577636 0.075632572 -0.057302073
4.6502452 0.42551827 -0.052291512
2.0402451 0.58829653 -0.057632655
4.4102454 0.78461564 -0.053911865
2.1552453 0.88790578 -0.05599153
4.4102454 0.97442973 -0.053557098
2.0402451 1.0188955 -0.051706359
4.4102454 1.1590848 -0.059724271
-2.8243792 1.1756325 -0.052893281
-2.4895334 1.1756325 -0.056840986
-2.4619014 1.1756325 -0.050214559
-1.4743032 1.1756325 -0.050229669
-0.017313808 1.1756325 -0.051271141
0.025820822 1.1756325 -0.053553984
0.14048532 1.1756325 -0.050848931
0.44009525 1.1756325 -0.055865407
0.80302501 1.1756325 -0.058162242
2.3924074 1.1756325 -0.05615887
2.8828571 1.1756325 -0.057247818
3.6167266 1.1756325 -0.051958501
3.9661558 1.1756325 -0.057125837
4.2706389 1.1756325 -0.052400786
1.7302451 1.1983483 -0.050656527
-3.0697236 1.2787919 -0.053812504
-2.9119158 1.2906325 -0.05780004
-1.9418789 1.2906325 -0.0514642
-1.6072723 1.2906325 -0.052447259
-1.1610627 1.2906325 -0.050127938
0.045491464 1.2906325 -0.052316837
0.1685344 1.2906325 -0.056167483
0.47754666 1.2906325 -0.056915402
0.54957259 1.2906325 -0.056576222
2.2975643 1.2906325 -0.058704212
2.7576709 1.2906325 -0.052424401
2.8676598 1.2906325 -0.059554398
3.1320252 1.2906325 -0.050365746
4.0496569 1.2906325 -0.050699145
4.3984156 1.2906325 -0.050573915
0.6152451 1.3226699 -0.05302554
-3.3097239 1.3501323 -0.056238107
0.6152451 1.3898406 -0.051102854
4.6502452 1.4920034 -0.059657574
4.4102454 1.567609 -0.058879495
4.4102454 1.6260321 -0.05423528
-3.0697236 1.6584201 -0.055254564
4.4102454 1.6641028 -0.056768119
0.6152451 1.6875763 -0.058211803
-3.0697236 1.7298152 -0.058072209
4.6502452 1.7329991 -0.051649272
0.73024511 1.7477549 -0.050725877
0.73024511 1.848487 -0.05894722
-3.0697236 1.9262551 -0.052447021
-3.3097239 1.9487917 -0.052113488
-3.3097239 2.0086415 -0.05860427
0.73024511 2.0590036 -0.055786639
4.6502452 2.206893 -0.054129809
0.73024511 2.258868 -0.056236237
4.4102454 2.2584581 -0.058570147
-3.0697236 2.3901553 -0.056267142
4.4102454 2.495749 -0.054074168
4.6502452 2.5330524 -0.05602482
4.6502452 2.8413148 -0.053867027
0.73024511 2.8713284 -0.057177544
0.73024511 2.92415 -0.058682263
0.73024511 3.045145 -0.053856611
0.73024511 3.1181364 -0.057602346
4.4102454 3.1245856 -0.056046814
0.6152451 3.3060465 -0.058492661
-3.3097239 3.3218255 -0.056632042
-3.3097239 3.389245 -0.053356647
0.6152451 3.3992276 -0.05122292
0.73024511 3.5143404 -0.055651546
-3.3097239 3.6621542 -0.053064406
-3.3097239 3.6824765 -0.050608993
4.6502452 3.7164862 -0.053418197
-3.0697236 3.8169918 -0.052508086
0.6152451 3.8604763 -0.056990564
0.73024511 3.9110186 -0.058745921
4.6502452 3.9601424 -0.05958987
-3.3097239 4.1457367 -0.05775696
4.4102454 4.2161741 -0.051170573
4.6502452 4.5744877 -0.052875675
4.6502452 4.6004004 -0.052419193
0.6152451 4.7017837 -0.059227616
4.4102454 4.758461 -0.057613432
-3.0697236 4.9432597 -0.051186442
-3.0697236 4.9590044 -0.056562077
4.6502452 4.9858532 -0.053847626
-3.0697236 5.0501909 -0.058798596
-3.0444434 5.1356325 -0.058065951
-2.5147376 5.1356325 -0.052009918
-1.688231 5.1395884 -0.054095745
-0.21253429 5.1356325 -0.056042243
-0.16452491 5.1356325 -0.053646889
0.0079573095 5.1356325 -0.052007046
0.18117578 5.1356325 -0.054916751
0.76394796 5.1356325 -0.059322856
0.80354822 5.1356325 -0.051865466
1.1027712 5.1356325 -0.059327513
2.0079126 5.1393967 -0.054095745
2.1422031 5.1384368 -0.054095745
2.2797601 5.1388593 -0.054095745
2.419219 5.1370039 -0.054095745
2.7640879 5.1356325 -0.05646009
3.6282406 5.1364837 -0.054095745
3.9434838 5.1356325 -0.05004862
4.1970086 5.1356325 -0.057597972
4.5133533 5.1356325 -0.050764527
-2.052278 5.1477938 -0.054095745
-2.0287151 5.1403556 -0.054095745
-1.9457086 5.1479645 -0.054095749
-1.9209569 5.1498852 -0.054095745
-1.6800672 5.1429653 -0.054095745
-1.29905 5.1440649 -0.054095745
-1.157039 5.1466656 -0.054095745
2.7737956 5.1429949 -0.054095745
3.3780088 5.1451197 -0.054095745
-2.3627107 5.1537552 -0.054095745
-1.9343522 5.1533394 -0.054095749
-1.5335823 5.1502876 -0.054095745
-0.35035938 5.1525416 -0.054095749
1.7528316 5.1561842 -0.054095745
1.8491366 5.1561322 -0.054095745
1.9127867 5.1589441 -0.054095745
2.2437119 5.1513643 -0.054095749
2.4798164 5.1526499 -0.054095745
2.7681367 5.1586142 -0.054095745
3.5416613 5.1504793 -0.054095745
-2.3681712 5.169343 -0.054095745
-2.2061708 5.1602674 -0.054095745
-1.8337148 5.165504 -0.054095745
-1.6495039 5.1658816 -0.054095745
-1.2169657 5.162178 -0.054095745
-0.75000596 5.1649365 -0.054095745
2.0200064 5.1677403 -0.054095745
2.0334353 5.165472 -0.054095745
2.4754772 5.1661258 -0.054095745
2.9909487 5.1613312 -0.054095745
3.6096921 5.163969 -0.054095741
-3.0697236 5.1701894 -0.053002805
-2.1502373 5.1716423 -0.054095745
-1.7877648 5.1767421 -0.054095741
-1.5017316 5.1737795 -0.054095745
-1.2034172 5.1724892 -0.054095745
1.6997267 5.1754112 -0.054095745
1.9042813 5.1712413 -0.054095745
2.0434232 5.1776876 -0.054095745
2.5278959 5.1728354 -0.054095745
2.6459329 5.1732321 -0.054095745
3.3680305 5.1704621 -0.054095749
3.6047351 5.1758456 -0.054095741
-2.1279674 5.1811657 -0.054095745
-1.8535709 5.18262 -0.054095745
-1.3770858 5.1899166 -0.054095745
-1.0564276 5.1835108 -0.054095745
2.4681199 5.1855907 -0.054095745
2.7652326 5.1809311 -0.054095745
3.1526067 5.1822162 -0.054095745
-1.5571399 5.1966853 -0.054095745
-0.82966435 5.1999259 -0.054095745
2.3082488 5.1976156 -0.054095745
2.5733981 5.1982374 -0.054095745
2.743794 5.192215 -0.054095745
2.7891264 5.1920929 -0.054095745
2.9166656 5.191577 -0.054095745
3.4824204 5.1942859 -0.054095745
-1.7725618 5.2039976 -0.054095745
-1.712713 5.2089243 -0.054095745
-1.3582731 5.2048149 -0.054095745
-1.0810646 5.2055368 -0.054095745
-0.6124475 5.2098241 -0.054095749
-0.5936625 5.2065148 -0.054095745
2.2660813 5.2006578 -0.054095745
2.923326 5.2043724 -0.054095745
3.109591 5.2001696 -0.054095745
3.1797669 5.2067857 -0.054095745
3.2654088 5.2006536 -0.054095745
3.6052766 5.2099767 -0.054095745
-1.6855261 5.2188573 -0.054095745
-1.6424901 5.2165298 -0.054095741
-1.0984918 5.2176332 -0.054095745
-0.71583974 5.2107677 -0.054095745
2.0990391 5.2112741 -0.054095745
3.6181328 5.2147365 -0.054095745
-2.3445029 5.2292681 -0.054095745
-2.1549137 5.2212176 -0.054095745
-1.6152465 5.2255812 -0.054095745
-1.6027744 5.228219 -0.054095745
-1.3055352 5.2206011 -0.054095745
-0.67002082 5.2200828 -0.054095745
1.8537661 5.2244964 -0.054095745
2.1071391 5.2258892 -0.054095745
2.3866434 5.2273359 -0.054095745
2.6707699 5.2267628 -0.054095745
3.0371904 5.2224889 -0.054095745
3.1597829 5.2238059 -0.054095745
3.2610509 5.2212706 -0.054095745
3.4395242 5.2252784 -0.054095745
2.1783321 5.2362957 -0.054095745
-2.2119539 5.2412062 -0.054095745
-1.8040721 5.2406397 -0.054095745
-1.447691 5.2411184 -0.054095745
-1.2876707 5.2488627 -0.054095745
-0.62699318 5.2446718 -0.054095745
-0.58543366 5.2474675 -0.054095745
1.8856845 5.2402711 -0.054095745
2.1732342 5.2483621 -0.054095745
2.3783865 5.2438307 -0.054095745
2.3849809 5.2455959 -0.054095745
2.4018669 5.2447443 -0.054095745
2.5848227 5.2483587 -0.054095745
2.7055612 5.2454386 -0.054095745
-0.96756661 5.2519994 -0.054095745
-0.86087781 5.2578936 -0.054095745
-0.52536082 5.2515345 -0.054095745
1.7013245 5.2590361 -0.054095745
2.1162813 5.251307 -0.054095745
2.9501293 5.2536492 -0.054095745
3.1780069 5.250895 -0.054095745
3.2322094 5.258503 -0.054095745
3.7102451 5.2523689 -0.05092182
-2.1207261 5.2692785 -0.054095745
-1.5986706 5.2647305 -0.054095745
-1.4260526 5.2699552 -0.054095745
-1.3634799 5.2669663 -0.054095745
-1.3023047 5.2630658 -0.054095745
1.907173 5.2618265 -0.054095745
3.0836973 5.2664242 -0.054095745
3.3158131 5.2656131 -0.054095745
3.5364726 5.2642374 -0.054095745
-3.0697236 5.2716699 -0.050209608
-2.3542569 5.2734895 -0.054095745
-2.3406341 5.2788048 -0.054095745
-2.1615467 5.2796645 -0.054095745
-1.7382185 5.2723789 -0.054095745
-1.6963987 5.2712793 -0.054095745
-1.4880981 5.2718554 -0.054095745
-0.93647993 5.2709341 -0.054095745
-0.87120569 5.2760367 -0.054095745
2.9781351 5.2723017 -0.054095745
-2.2906029 5.2820563 -0.054095745
-1.1862284 5.2885685 -0.054095745
-1.1404877 5.2879639 -0.054095745
-0.80621094 5.2877879 -0.054095745
-0.76845658 5.2871027 -0.054095745
2.3968792 5.2812462 -0.054095745
2.4062772 5.2880034 -0.054095745
2.4666183 5.2893581 -0.054095745
3.1749945 5.288435 -0.054095745
3.3548121 5.2894669 -0.054095745
-2.1943071 5.2923684 -0.054095745
-1.3129703 5.2990932 -0.054095745
-1.1952219 5.299469 -0.054095745
3.032156 5.2919521 -0.054095745
3.4885433 5.2962542 -0.054095745
3.5618477 5.2930551 -0.054095745
-2.0385449 5.301362 -0.054095745
-0.75242984 5.3033347 -0.054095745
1.7058779 5.3064275 -0.054095745
1.7498733 5.308403 -0.054095745
1.9635274 5.3072958 -0.054095749
2.6041224 5.3091226 -0.054095745
3.2037435 5.3037891 -0.054095745
3.5189157 5.3036761 -0.054095745
3.583395 5.3055758 -0.054095745
-1.5003239 5.3134689 -0.054095745
-1.4355599 5.3170166 -0.054095745
-1.1520357 5.3144236 -0.054095745
-1.1189022 5.3132534 -0.054095745
-0.60918343 5.3143773 -0.054095745
-0.48500749 5.3152447 -0.054095745
2.2672429 5.3166776 -0.054095745
3.6312242 5.3174129 -0.054095745
-2.2409389 5.3270445 -0.054095745
-1.4778706 5.321619 -0.054095749
-0.68807638 5.3257856 -0.054095745
-0.5601505 5.3238468 -0.054095745
2.9880335 5.3236446 -0.054095745
-3.0697236 5.3303919 -0.058081001
-1.4421415 5.3321543 -0.054095745
-1.2630504 5.33288 -0.054095745
-1.1301661 5.3372478 -0.054095745
3.1327889 5.3395295 -0.054095745
3.4206855 5.3358455 -0.054095745
3.5395257 5.3309669 -0.054095745
-2.1741519 5.3492389 -0.054095745
-1.656455 5.3424988 -0.054095745
-1.3905017 5.3493214 -0.054095745
-1.124312 5.3457313 -0.054095745
-0.54469311 5.3403034 -0.054095745
-0.45635641 5.3449502 -0.054095745
1.7307558 5.343627 -0.054095749
2.1431115 5.3402424 -0.054095745
2.1879528 5.3441906 -0.054095745
2.3120952 5.3497734 -0.054095745
2.355242 5.3447433 -0.054095745
2.4573503 5.3433061 -0.054095745
3.2963715 5.3441019 -0.054095745
3.4279497 5.3479486 -0.054095745
3.4372838 5.3441601 -0.054095745
-1.2011234 5.3552132 -0.054095745
-0.54769307 5.3552046 -0.054095749
-0.5379439 5.3509693 -0.054095745
2.2295294 5.3522739 -0.054095745
2.3320522 5.3596992 -0.054095745
3.6349385 5.3540401 -0.054095745
-1.8710344 5.363657 -0.054095745
-1.5348407 5.3670182 -0.054095745
-0.82966787 5.3601532 -0.054095745
1.8444476 5.3681369 -0.054095749
2.3371 5.364213 -0.054095745
3.1485915 5.3671799 -0.054095745
-3.2712333 5.3756323 -0.055097982
-3.0400367 5.3756323 -0.055748533
-2.9380684 5.3756323 -0.05787503
-2.8961823 5.3756323 -0.051769927
-2.5741916 5.3756323 -0.053934783
-2.151783 5.3756323 -0.054373179
-1.7352923 5.3727293 -0.054095745
-0.81974304 5.3756323 -0.058861461
0.36046338 5.3756323 -0.054383054
0.48217273 5.3756323 -0.051644776
0.5756942 5.3756323 -0.051179431
1.0596076 5.3756323 -0.056550946
1.38755 5.3756323 -0.055370189
2.0990963 5.3756323 -0.056376331
2.3489528 5.3726349 -0.054095745
2.6319206 5.3756323 -0.058351763
3.4778676 5.3701782 -0.054095745
3.5627546 5.3756323 -0.059339076
3.6591446 5.371377 -0.054095745
3.9004569 5.3756323 -0.050445065
-3.0697236 -4.0600243 -0.043085426
-3.0017018 -4.0643673 -0.044356279
-2.5778413 -4.0643673 -0.045260735
-1.5877889 -4.0643673 -0.042851027
-1.4072104 -4.0643673 -0.047121953
-1.143363 -4.0643673 -0.045015164
-0.86558735 -4.0643673 -0.048732352
-0.68074781 -4.0643673 -0.043982487
0.065024376 -4.0643673 -0.048485927
0.085350275 -4.0643673 -0.047801323
0.50433397 -4.0643673 -0.049410112
1.1526455 -4.0643673 -0.048178744
4.4102454 -4.0508623 -0.046736114
4.6502452 -3.9975433 -0.047924966
4.6502452 -3.9714799 -0.048538424
4.4102454 -3.8887727 -0.045626119
4.6502452 -3.8660717 -0.040112045
-1.9623659 -3.8243673 -0.045282539
-1.9240437 -3.8243675 -0.049440876
-0.24798521 -3.8243675 -0.047521461
0.024186879 -3.8243675 -0.040705979
1.2498069 -3.8243675 -0.046607673
3.8112297 -3.8243675 -0.042621799
4.0338759 -3.8243675 -0.042492956
-2.0697236 -3.6392069 -0.047180567
-2.0697236 -3.540853 -0.041706931
-3.0697236 -3.5065763 -0.042436793
-3.0697236 -3.4567053 -0.046256423
0.39024508 -3.3674741 -0.047476009
-3.3097239 -3.3419073 -0.049087599
-2.0697236 -3.2643576 -0.045526519
-2.0697236 -3.2069554 -0.045739353
-3.3097239 -3.1848912 -0.044614688
-1.9547238 -3.1841393 -0.0451819
-3.3097239 -3.1672165 -0.049787134
-3.0697236 -3.1291764 -0.045350462
-1.9547237 -3.066015 -0.040298969
-2.0697236 -3.0448816 -0.041545436
0.39024508 -2.987843 -0.047476918
0.21524513 -2.8530531 -0.04138419
-3.3097239 -2.7632682 -0.048101217
-3.0697236 -2.7043364 -0.045003355
-3.3097239 -2.6616304 -0.041355848
0.39024508 -2.6035366 -0.046500504
-3.0697236 -2.4599516 -0.04445976
-2.0697236 -2.4538627 -0.04380092
-3.0697236 -2.4156475 -0.044114053
4.6502452 -2.4180162 -0.047017485
0.39024508 -2.3114574 -0.046387136
-3.0697236 -2.1201684 -0.044751525
-2.0697236 -2.1078019 -0.043445051
-1.9547236 -1.866451 -0.048679531
0.21524513 -1.8638679 -0.045415699
-3.0697236 -1.776274 -0.04901576
0.39024508 -1.735136 -0.048440516
-1.9547237 -1.7161058 -0.048374891
-2.0697236 -1.3921517 -0.046818137
-1.9547237 -1.3809038 -0.049020231
0.39024508 -1.3726118 -0.045746356
4.6502452 -1.2967998 -0.042882025
-0.75044149 -1.2393675 -0.041897673
-0.087838843 -1.2393675 -0.046515286
-0.019921735 -1.2393675 -0.043001831
4.4102454 -1.2022611 -0.0436019
-1.9547236 -1.1403996 -0.047278434
-0.73246729 -1.1243675 -0.041464254
-0.23746362 -1.1243675 -0.042168617
0.21524513 -1.1035532 -0.048112035
-2.0697236 -1.0392884 -0.042814583
0.21524513 -0.99793631 -0.046736091
0.21524513 -0.98518318 -0.048200518
-0.034754872 -0.97215587 -0.041054204
-0.034754872 -0.94485116 -0.049334317
0.39024508 -0.89072907 -0.045474887
-2.0697236 -0.83353376 -0.041489273
0.21524513 -0.74604493 -0.047702342
-1.9547238 -0.73031926 -0.049917206
4.6502452 -0.69899333 -0.040216446
0.39024508 -0.66748983 -0.043661341
-0.15475488 -0.50302351 -0.043213606
-0.15475488 -0.44166169 -0.047537863
-0.034754872 -0.41069451 -0.044352263
0.21524513 -0.23687503 -0.042123593
-0.15475488 -0.2132729 -0.040905297
0.21524513 -0.14971286 -0.04926661
-1.0168462 -0.039367437 -0.043223627
-0.81048304 -0.039367437 -0.041316688
-0.11415038 -0.039367437 -0.048945695
-0.047084711 -0.039367437 -0.043101504
-0.013851881 -0.039367437 -0.042954862
0.22358203 -0.039367437 -0.040038675
0.32233796 -0.039367437 -0.043509275
0.43345794 -0.039367437 -0.04244712
-2.0405307 0.075632572 -0.049263515
-1.9928195 0.075632572 -0.041901261
-1.004308 0.075632572 -0.047967982
-0.90497273 0.075632572 -0.046295382
-0.011712074 0.075632572 -0.043448567
0.13894448 0.075632572 -0.040411413
0.39171067 0.075632572 -0.046841741
0.64728725 0.075632572 -0.040932477
-3.0697236 0.084831744 -0.041967869
4.4102454 0.10123849 -0.044624418
-3.2138884 0.11063242 -0.041290343
-3.0805478 0.11063242 -0.041338548
2.1552453 0.19003411 -0.041949391
2.1552453 0.28283376 -0.044797271
2.0402451 0.33851567 -0.045829281
2.1552453 0.59980792 -0.043103993
4.6502452 0.61276209 -0.048344791
4.6502452 0.81774485 -0.047007769
4.6502452 0.99030316 -0.049174875
2.0402451 1.1138647 -0.041444764
-3.0023515 1.1756325 -0.043558642
-1.3451905 1.1756325 -0.04368335
-1.2321454 1.1756325 -0.049791336
-1.0643845 1.1756325 -0.045133971
0.63571739 1.1756325 -0.042153582
1.8754673 1.1756325 -0.042110316
1.9002452 1.1756325 -0.045364089
2.1106493 1.1756325 -0.040702581
2.4959564 1.1756325 -0.048754364
2.7757149 1.1756325 -0.045210481
3.1969039 1.1756325 -0.049519092
3.4249959 1.1756325 -0.048303723
-0.084754944 1.1897366 -0.049015425
0.83024514 1.189904 -0.048785478
-3.0079789 1.2906325 -0.046794973
-2.6225863 1.2906325 -0.049270868
-2.5617216 1.2906325 -0.046675563
-2.5177636 1.2906325 -0.045325518
-2.4646213 1.2906325 -0.040932417
-1.7807293 1.2906325 -0.043262184
-1.6829541 1.2906325 -0.045372009
-1.281599 1.2906325 -0.041082636
-0.065971538 1.2906325 -0.041936599
0.16730598 1.2906325 -0.045796365
0.28206456 1.2906325 -0.045477182
0.82078308 1.2906325 -0.045921654
2.0793624 1.2906325 -0.048303045
2.9360037 1.2906325 -0.044548154
3.1144118 1.2906325 -0.04370755
3.2047896 1.2906325 -0.044192016
3.210849 1.2906325 -0.04363966
3.5720348 1.2906325 -0.040755808
3.9605899 1.2906325 -0.043996781
0.6152451 1.3762782 -0.040503256
4.4102454 1.5084352 -0.045806587
4.4102454 1.5690385 -0.046792805
0.6152451 1.7044034 -0.046460927
4.6502452 1.7437985 -0.0455755
0.6152451 1.8332863 -0.046792254
4.4102454 1.9582138 -0.041211486
0.6152451 2.0068686 -0.045565128
-3.3097239 2.0656037 -0.047907025
0.6152451 2.1209459 -0.048146263
0.73024511 2.1240273 -0.046026945
4.6502452 2.3657651 -0.045549065
-3.0697236 2.3838296 -0.042045593
4.6502452 2.423775 -0.042689204
4.6502452 2.442416 -0.042918086
4.4102454 2.5580392 -0.04425168
0.73024511 2.6665883 -0.047217131
0.6152451 2.7270076 -0.042355299
4.6502452 2.8486135 -0.046417862
-3.0697236 3.0290673 -0.046059906
-3.3097239 3.0360298 -0.043908745
0.6152451 3.1072099 -0.048947066
0.73024511 3.1066222 -0.041992009
4.6502452 3.1280327 -0.041747317
4.4102454 3.2190642 -0.040482908
0.73024511 3.2543459 -0.04566431
0.6152451 3.3947058 -0.049782515
-3.0697236 3.5151539 -0.044219628
-3.3097239 3.7531443 -0.043064952
-3.0697236 3.796747 -0.047531605
4.4102454 4.0504808 -0.040073231
-3.3097239 4.2759876 -0.045626104
-3.0697236 4.3938537 -0.045398116
-3.0697236 4.5130363 -0.040657952
4.4102454 4.5480142 -0.049406908
0.73024511 4.6378102 -0.044037618
-3.3097239 4.7084708 -0.043331593
4.6502452 4.7057333 -0.040329017
-3.3097239 4.7697964 -0.043285906
-3.0697236 4.9583077 -0.045400925
-3.0697236 4.9670963 -0.047104087
0.6152451 4.9728041 -0.04801102
-3.0697236 4.9956498 -0.04688805
4.4102454 5.1232252 -0.042415868
-0.31930211 5.1356325 -0.042579681
-0.087261498 5.1356325 -0.048972532
-0.0065540373 5.1356325 -0.048078965
0.39668837 5.1356325 -0.044207364
0.41261417 5.1356325 -0.043732233
0.83000618 5.1356325 -0.042810276
0.96173257 5.1356325 -0.044043913
1.611246 5.1356325 -0.048729364
-3.3097239 5.1477876 -0.043251418
4.6502452 5.3558974 -0.040901616
-0.25351185 5.3756323 -0.0458427
1.5604577 5.3756323 -0.042440534
1.595979 5.3756323 -0.045380339
3.9729686 5.3756323 -0.048786934
4.3786607 5.3756323 -0.048192233
4.4296947 5.3756323 -0.044032346
-2.6197917 -4.0643673 -0.030517735
-1.7390993 -4.0643673 -0.030002961
-1.5137854 -4.0643673 -0.032472752
-1.1785457 -4.0643673 -0.037455063
-0.15632844 -4.0643673 -0.039415352
-0.088674664 -4.0643673 -0.030806243
0.73424518 -4.0643673 -0.035836555
1.248306 -4.0643673 -0.035628788
1.5644364 -4.0643673 -0.03132093
4.1151261 -4.0643673 -0.032650828
4.1829729 -4.0643673 -0.033523798
4.2115231 -4.0643673 -0.030755997
-3.0697236 -3.8712723 -0.030153871
-2.8026698 -3.8243675 -0.031353101
-2.7117591 -3.8243675 -0.030902691
-1.1381278 -3.8243675 -0.033298828
0.48474556 -3.8243675 -0.037571132
0.49770191 -3.8243675 -0.03975445
1.5799702 -3.8243675 -0.034561418
4.3209224 -3.8243675 -0.039354011
-2.0697236 -3.8113923 -0.035967238
-3.3097239 -3.7480824 -0.035772033
-1.9547237 -3.7374363 -0.032806866
-3.0697236 -3.508235 -0.03104122
-1.9547237 -3.431849 -0.03093116
-3.3097239 -3.2987113 -0.032271072
0.39024508 -3.2342725 -0.034849346
4.4102454 -3.1843975 -0.031595178
4.4102454 -3.1486855 -0.032300398
4.4102454 -3.0651078 -0.031273685
-1.9547237 -3.0283327 -0.030304581
-2.0697236 -2.9326298 -0.036764801
-2.0697236 -2.8310375 -0.034873933
4.4102454 -2.5969195 -0.036097243
4.6502452 -2.5349681 -0.03382507
-3.3097239 -2.482223 -0.036348045
-1.9547238 -2.4522729 -0.039964378
-2.0697236 -2.3606966 -0.036010772
-1.9547238 -2.3671062 -0.035362899
4.6502452 -2.2513442 -0.030958712
-3.0697236 -2.14217 -0.030766189
4.4102454 -2.1139843 -0.032251269
4.6502452 -1.9742596 -0.036927342
0.39024508 -1.8635682 -0.035526991
-3.0697236 -1.8257766 -0.030065656
4.6502452 -1.8261049 -0.035627246
4.4102454 -1.7588782 -0.037835896
0.21524513 -1.7079473 -0.036913335
4.4102454 -1.6214147 -0.033890188
4.6502452 -1.614933 -0.03460753
-3.0697236 -1.5634238 -0.03242749
0.21524513 -1.5457242 -0.034938335
4.6502452 -1.4885755 -0.035435528
0.21524513 -1.3857117 -0.034022868
-3.3097239 -1.3536292 -0.037113786
-0.72272295 -1.2393675 -0.035330191
-0.4624874 -1.2393675 -0.039808571
-0.34570685 -1.2393675 -0.034951508
-0.78475493 -1.2075984 -0.033447534
0.21524513 -1.1654278 -0.031763613
-0.20409986 -1.1243675 -0.032169729
4.4102454 -1.0762835 -0.033582062
-2.0697236 -1.0366223 -0.031505525
0.21524513 -1.0397772 -0.037666231
4.6502452 -1.0341917 -0.03418684
0.21524513 -1.0210226 -0.032791764
0.39024508 -1.0174549 -0.032861501
-3.0697236 -0.86648893 -0.031092942
4.6502452 -0.81306505 -0.037025869
0.39024508 -0.78534782 -0.037956581
0.39024508 -0.75968379 -0.03583473
4.6502452 -0.70423245 -0.037326932
0.21524513 -0.66640323 -0.030029386
4.6502452 -0.66732657 -0.039887369
-0.034754872 -0.65255982 -0.034295559
-1.9547238 -0.64533889 -0.034841925
-3.3097239 -0.60377133 -0.038430482
-3.0697236 -0.56691581 -0.033715606
-0.034754872 -0.53427041 -0.034621716
-3.0697236 -0.51052427 -0.032468081
4.6502452 -0.50253856 -0.033347189
0.21524513 -0.49687007 -0.030186862
4.6502452 -0.30179286 -0.031982899
-0.15475488 -0.29435191 -0.038070142
-2.0697236 -0.28497756 -0.03406921
-3.3097239 -0.13247401 -0.038943708
4.6502452 -0.056755543 -0.033576965
-1.968433 -0.039367437 -0.035887033
-1.053977 -0.039367437 -0.031301759
-0.39646032 -0.039367437 -0.031729519
0.64434415 -0.039367437 -0.038839564
0.87427592 -0.039367437 -0.034734286
2.0742948 -0.039367437 -0.036896408
-1.8547237 -0.02353142 -0.037311897
-1.0847237 0.04027639 -0.032033235
-3.3097239 0.051343061 -0.03216745
-1.9869835 0.075632572 -0.037741095
-1.8957788 0.075632572 -0.03004241
0.39457771 0.075632572 -0.034174681
0.81192201 0.075632572 -0.030800268
2.0828784 0.075632572 -0.033981681
2.1018054 0.075632572 -0.03058517
2.0402451 0.25433236 -0.037917688
4.4102454 0.34620786 -0.03769505
2.0402451 0.5352006 -0.035174936
4.6502452 0.66680491 -0.038750231
2.0402451 0.69392306 -0.036402106
4.6502452 0.73745143 -0.038207769
4.6502452 0.81679893 -0.03406322
4.6502452 1.0420767 -0.036223292
4.4102459 1.0665398 -0.030307531
-2.603019 1.1756325 -0.033300072
-2.2045531 1.1756325 -0.036604404
-1.1235938 1.1756325 -0.034652483
-1.1011155 1.1756325 -0.032465745
0.21067077 1.1756325 -0.036050618
1.8317592 1.1756325 -0.035999518
2.0990205 1.1756325 -0.03803882
2.1887527 1.1756325 -0.035791278
2.6913028 1.1756325 -0.035869956
4.1056333 1.1756325 -0.033104546
4.3079252 1.1756325 -0.030273717
4.4102454 1.2486432 -0.034653068
4.6502452 1.2429913 -0.031861603
-3.0656261 1.290843 -0.037534215
-2.6859591 1.2906325 -0.032946676
-2.2489123 1.2906325 -0.035682887
-1.4718001 1.2906325 -0.036492437
-1.1505133 1.2906325 -0.038557976
-0.022741999 1.2906325 -0.035905406
3.3986983 1.2906325 -0.032796919
0.73024511 1.3367059 -0.030642638
-3.0697236 1.6658125 -0.03412737
4.6502452 1.8468776 -0.034534663
-3.3097239 1.9403901 -0.035683066
0.73024511 1.955074 -0.036092967
0.73024511 1.9674528 -0.03747046
4.4102454 2.1085749 -0.038676381
-3.0697236 2.1116681 -0.032756984
0.6152451 2.1223669 -0.036913946
0.73024511 2.2705595 -0.035783082
-3.3097239 2.4296739 -0.034996569
0.6152451 2.4489567 -0.035965413
4.6502452 2.6506171 -0.038741738
0.6152451 2.6734834 -0.035325736
0.73024511 2.740169 -0.034573913
4.4102454 2.954443 -0.039331466
0.73024511 2.9778385 -0.037902355
0.6152451 3.0268033 -0.031137913
-3.0697236 3.0373673 -0.033620477
-3.3097239 3.1511641 -0.035766363
4.4102454 3.2945199 -0.031566292
0.73024511 3.4548802 -0.038642973
4.4102454 3.4579678 -0.039511859
4.6502452 3.4558511 -0.035371393
0.73024511 3.5061755 -0.037673622
-3.3097239 3.5223801 -0.034180999
4.4102454 3.5599403 -0.031201541
0.6152451 3.5757473 -0.039771795
0.73024511 3.5881774 -0.030711889
0.6152451 3.7653947 -0.039085984
-3.0697236 3.8088064 -0.033160776
4.6502447 3.8576665 -0.035436772
4.6502452 4.0331507 -0.038803078
4.6502447 4.1563139 -0.036759444
-3.3097239 4.3067389 -0.030143917
4.6502452 4.3437905 -0.030406572
-3.3097239 4.3691964 -0.032905936
-3.0697236 4.4247966 -0.03505379
0.6152451 4.4917226 -0.038462967
-3.3097239 4.5267701 -0.036209673
0.6152451 4.5737619 -0.035764903
-3.3097239 4.7475271 -0.038136616
4.6502452 4.7879763 -0.031517144
4.4102454 4.7985692 -0.039958481
-3.0697236 4.8781228 -0.03985934
4.6502452 4.8869348 -0.03033801
0.6152451 4.9741397 -0.032179154
0.6152451 5.0568423 -0.034021802
-3.0697236 5.0796099 -0.033136997
-3.0697236 5.0990191 -0.032967258
0.6152451 5.1188741 -0.035954218
0.70606315 5.1356325 -0.038057804
0.73024511 5.1344266 -0.037963625
0.8049283 5.1356325 -0.030008014
1.0575796 5.1356325 -0.035174936
1.3830025 5.1356325 -0.033014685
3.9750381 5.1356325 -0.030326117
4.5292931 5.1356325 -0.03883028
4.5595751 5.1356325 -0.037673473
-2.3697238 5.1774187 -0.033732921
-2.3697238 5.196826 -0.032339491
4.6502452 5.2207642 -0.037803292
4.6502452 5.3195329 -0.033239171
0.041295305 5.3756323 -0.037823975
0.11432473 5.3756323 -0.033772111
0.59446275 5.3756323 -0.038931258
4.5306711 5.3756323 -0.032802239
4.629828 5.3756328 -0.033884041
-2.7373357 -4.0643673 -0.024690479
-1.7691132 -4.0643673 -0.023106521
-1.724648 -4.0643673 -0.02878887
-1.3370495 -4.0643673 -0.028082959
-0.49792516 -4.0643673 -0.026043568
0.0011628866 -4.0643673 -0.025344286
0.94463009 -4.0643673 -0.027647335
0.95628214 -4.0643673 -0.022035487
3.8296006 -4.0643673 -0.028533638
1.680245 -3.990576 -0.029234231
4.4102459 -3.9959123 -0.028785951
1.680245 -3.9601722 -0.026684463
4.4102454 -3.9426026 -0.021917284
-2.4592173 -3.8243675 -0.026827227
-1.6570997 -3.8243675 -0.025234615
-1.5143646 -3.8243675 -0.021391803
0.62201917 -3.8243675 -0.022181451
1.6670561 -3.8243675 -0.021439487
4.4102454 -3.7969439 -0.029524744
-3.0697236 -3.6015995 -0.022935212
-3.3097239 -3.5378428 -0.024391621
-2.0697236 -3.4208264 -0.020943202
4.6502452 -3.321064 -0.026115373
-3.0697236 -3.236779 -0.023403913
-3.3097239 -3.2296259 -0.020889953
0.21524513 -3.1186819 -0.024480343
-3.0697236 -3.0750301 -0.021886766
4.4102454 -3.012912 -0.028978951
-2.0697236 -2.9217095 -0.029816285
-1.9547238 -2.8373365 -0.027230501
0.39024508 -2.8279088 -0.022088796
-3.3097239 -2.8140035 -0.028047115
0.21524513 -2.7632818 -0.023791701
0.39024508 -2.7642143 -0.021075308
0.21524513 -2.5230892 -0.026827067
4.4102454 -2.518517 -0.029990911
-3.0697236 -2.5044587 -0.02230227
-2.0697236 -2.4880147 -0.024053276
-3.3097239 -2.4401064 -0.022598088
4.6502452 -2.2833483 -0.021372139
0.21524513 -2.2471013 -0.020862788
4.6502452 -2.2259817 -0.02244693
4.4102454 -2.1066525 -0.022928983
-3.0697236 -2.0417523 -0.025942147
4.6502452 -2.0227599 -0.026557744
-2.0697236 -2.0094707 -0.022726357
4.6502452 -1.9399564 -0.022942513
-3.0697236 -1.8936769 -0.029587507
-1.9547236 -1.8783612 -0.021489084
0.21524513 -1.817445 -0.027671933
4.4102454 -1.70627 -0.023508906
0.39024508 -1.493485 -0.028733939
4.4102454 -1.4815953 -0.028034091
4.6502452 -1.4400141 -0.025422245
4.4102454 -1.3715355 -0.020357966
-1.9547237 -1.3152677 -0.025908679
-3.3097239 -1.2556593 -0.021527767
-0.50023484 -1.2393675 -0.020989627
-0.42545551 -1.2393675 -0.029783964
-0.0085769445 -1.2393675 -0.027803332
-2.0697236 -1.1666758 -0.026222527
-3.0697236 -1.1271505 -0.029795885
-0.75577825 -1.1243675 -0.028410047
-0.20267175 -1.1243675 -0.023821592
-0.072840765 -1.1243675 -0.020430773
-2.0697236 -1.0780364 -0.023596078
0.21524513 -1.0002129 -0.027381927
-2.0697236 -0.95953184 -0.028862655
-2.0697236 -0.89712286 -0.026645243
0.21524513 -0.79675633 -0.025362074
4.6502452 -0.77310467 -0.02401638
4.6502452 -0.74232185 -0.024796188
-3.3097239 -0.6925481 -0.029816329
4.4102454 -0.69217563 -0.025494009
0.39024508 -0.67423081 -0.024732962
4.4102454 -0.64724827 -0.020964146
4.6502452 -0.60403514 -0.021785498
-0.034754872 -0.5939911 -0.023997724
0.21524513 -0.5937711 -0.021595642
-0.15475488 -0.54192495 -0.027693629
-0.15475488 -0.52982432 -0.026596725
0.39024508 -0.52316618 -0.029373653
-1.9547237 -0.51670557 -0.029206805
-0.15475488 -0.48765171 -0.029166043
-0.034754872 -0.44555506 -0.022576898
-3.3097239 -0.3616063 -0.028871194
-1.9547238 -0.36439678 -0.028234571
-0.15475488 -0.35175774 -0.023557782
-2.0697236 -0.2937763 -0.021769144
-1.9547238 -0.29688242 -0.020648073
-3.0697236 -0.22666545 -0.027243555
4.6502452 -0.22025824 -0.024755776
4.4102454 -0.20234251 -0.021045327
-0.034754872 -0.15402079 -0.02419322
0.39024508 -0.11312266 -0.021568621
-1.9494402 -0.039367437 -0.022752255
0.11378974 -0.039367437 -0.026702821
0.31141379 -0.039367437 -0.020534575
0.52704632 -0.039367437 -0.027038187
-1.9268842 0.075632572 -0.029724598
-0.72815871 0.075632572 -0.020582467
-0.53589106 0.075632572 -0.029311091
