# .PCD v0.7 - Point Cloud Data file format
VERSION 0.7
FIELDS x y z
SIZE 4 4 4
TYPE F F F
COUNT 1 1 1
WIDTH 1576
HEIGHT 1
VIEWPOINT 0 0 0 1 0 0 0
POINTS 1576
DATA ascii
7.2496133 1.7849005 5.000618
1.253816e-07 1.8077421 5.0051532
7.2496128 1.8050102 5.0080805
0.23999989 1.8406417 5.0052366
1.3682434e-07 1.9727224 5.0026464
0.23999992 2.0124931 5.0013762
3.72 2.0116355 5.0019274
0.23999992 2.1165466 5.0064073
3.72 2.1744134 5.0037537
7.009613 2.2141676 5.0038204
0.23999994 2.3170242 5.0066667
7.009613 2.3283043 5.0029469
3.7200003 2.3732421 5.0005145
7.009613 2.4345512 5.0048165
3.72 2.5058954 5.0019994
0.23999995 2.5165164 5.0023446
1.8373451e-07 2.6490695 5.0053897
0.23999996 2.7031322 5.0004525
7.009613 2.7329342 5.0051641
7.0096135 2.8090982 5.0072436
7.2496128 2.9174194 5.0035419
0.23999998 2.9500406 5.0019999
3.7200003 2.9576674 5.0079241
7.009613 2.98774 5.005734
7.009613 3.2128339 5.0027184
0.24000001 3.2390964 5.008707
7.009613 3.328512 5.0090628
7.2496128 3.543407 5.0093842
0.24000002 3.601944 5.002758
3.6000001 3.7862735 5.0077171
7.2496128 3.8676543 5.0087605
7.0096135 3.9174793 5.0060701
7.2496128 3.9178052 5.0021238
7.009613 3.9209964 5.008121
3.7200003 4.0165439 5.0012984
7.2496128 4.0850635 5.0039082
7.2496128 4.1468315 5.0018392
0.24000007 4.2264237 5.0055294
3.0160578e-07 4.3485279 5.0003037
7.009613 4.341547 5.0032716
7.2496128 4.3404131 5.003571
7.0096135 4.3737884 5.0084767
7.2496128 4.4046659 5.0020514
3.1497481e-07 4.5412812 5.0064659
3.7200003 4.6738434 5.0037599
3.7200003 4.7595725 5.0037651
3.6000001 4.7603841 5.0038452
3.7200003 4.8448639 5.004096
3.4978697e-07 5.043201 5.0045543
7.2496133 5.1738935 5.0064297
7.2496128 5.2185163 5.0028853
3.7072417e-07 5.3450713 5.0072808
3.5999999 5.3602328 5.0041571
7.0096135 5.4527068 5.0054808
3.6000004 5.5571342 5.001545
3.7200003 5.6227131 5.0028162
2.3416121 5.9499998 5.0022235
7.2496133 5.9569888 5.0055566
0.24000017 5.9909005 5.0097198
2.5000002 6.1229072 5.0068893
0.24000022 6.3214889 5.0023513
2.5000002 6.4225106 5.0064301
3.7200003 6.4492655 5.0070376
3.5999999 6.5073214 5.008842
3.5999999 6.517251 5.0008535
2.3687248 6.5500002 5.0085888
3.6000001 6.6427474 5.0028787
4.6203982e-07 6.6616535 5.0044436
7.0096135 6.8159733 5.0049958
0.24000025 6.9866562 5.0032096
3.6000001 7.0095248 5.00805
7.0096135 7.0279069 5.0075359
3.6000001 7.044476 5.0049191
7.2496138 7.0451016 5.0091314
3.6000004 7.397552 5.003273
3.6000001 7.4518442 5.0032692
4.7683716e-07 7.705368 5.0065107
7.009613 7.8637352 5.0022855
7.2496128 7.9025636 5.0081549
3.6000004 7.9478178 5.0045333
7.2496133 8.0802002 5.0018139
2.5000002 8.1305246 5.0056362
7.0096135 8.2131519 5.0018363
2.5 8.2709579 5.0094151
7.009614 8.2890835 5.0083351
0.24000028 8.3265076 5.0005074
2.5000005 8.3246155 5.0061827
7.0096135 8.4630318 5.0033984
2.5000005 8.4849176 5.0019135
7.2496128 8.6851807 5.008625
7.2496138 8.7488441 5.0024304
4.7683716e-07 8.8338404 5.0021582
3.7200005 8.9067812 5.0042782
3.6000004 8.9345751 5.0072927
2.3850005 8.9440737 5.0078173
0.24000034 8.9957008 5.0003042
2.5000005 9.0030823 5.0084014
2.5000005 9.1714849 5.0014706
2.5000005 9.3489037 5.0054417
7.0096135 9.3410177 5.00351
4.7683716e-07 9.3532791 5.0051479
7.009614 9.4398117 5.0053444
7.0350056 9.4499998 5.0012398
7.8710108 9.4500008 5.0019741
8.1079416 9.5393038 5.0091734
2.3850005 9.5439205 5.0078545
0.57325494 9.6400003 5.0003271
0.71751177 9.6400003 5.0085478
2.4431841 9.6400003 5.0053039
2.6925683 9.6400003 5.007555
3.1340964 9.6400003 5.0065269
7.4803677 9.6899996 5.0009518
8.09097 9.6899996 5.0084767
7.0476742 9.6900005 5.0005984
4.7683716e-07 9.7605562 5.0005655
4.7683716e-07 9.7809114 5.0055256
7.8503995 9.8407888 5.0066085
2.0643396 9.8800001 5.002984
4.7683716e-07 9.9177914 5.0059152
3.6000004 9.9782133 5.0017939
0.24000041 9.9935417 5.0040216
3.6000001 9.9983616 5.0002503
7.8272653 10.247371 5.0070152
0.24000043 10.427158 5.0059438
0.24000046 10.564144 5.0086241
8.0475149 10.601302 5.0007815
0.24000044 10.641609 5.0020189
8.0436516 10.669193 5.001905
4.7683716e-07 10.685366 5.0051947
0.24000046 10.723115 5.0033989
0.24000044 10.751384 5.0000124
4.7683716e-07 11.119595 5.0050268
8.0157547 11.159488 5.0088072
8.0099487 11.261537 5.0064111
4.7683716e-07 11.41815 5.0008125
3.7200005 11.466139 5.0061431
7.9948106 11.527566 5.0012636
7.9928689 11.561697 5.0009689
7.7476306 11.646921 5.0078077
3.6000004 11.74795 5.0053539
0.24000055 12.00326 5.0049205
7.9656363 12.040296 5.0088787
4.7683716e-07 12.098948 5.0074196
7.9592724 12.152143 5.0022573
3.7200005 12.225962 5.0022192
3.7200007 12.584717 5.0064492
3.7200007 12.596271 5.0052505
7.9283247 12.696032 5.0065536
4.7683716e-07 12.806547 5.003943
4.7683716e-07 12.816351 5.0016866
7.9200225 12.841944 5.0052643
0.24000061 12.959932 5.0060625
0.24000062 13.039169 5.0049434
0.24000062 13.042996 5.0055561
0.24000064 13.329153 5.0018296
0.24000064 13.380466 5.0082774
7.8879528 13.405557 5.0067043
7.6451187 13.448536 5.0079651
0.24000067 13.551739 5.0045862
7.8792481 13.558542 5.0027685
0.24000068 13.736184 5.000443
7.8648138 13.812209 5.006217
0.24000068 13.844512 5.0058975
7.6173725 13.936171 5.0089493
0.24000071 14.162753 5.0054111
4.7683716e-07 14.198778 5.0049024
7.602211 14.202634 5.0049438
0.24000071 14.254695 5.0064206
7.8342967 14.348542 5.0027552
0.24000072 14.394912 5.0046349
7.1075068 -3.5762787e-07 5.0162277
7.1153402 -3.5762787e-07 5.0137124
0.2399998 0.45322824 5.0188513
0.2399998 0.46407598 5.013391
3.72 0.49109316 5.019587
7.2496128 0.49068385 5.0176296
3.5999999 0.51895988 5.0129747
4.1763435e-08 0.60214192 5.01614
5.414498e-08 0.78065801 5.0118823
7.009613 0.83182222 5.017736
6.3643533e-08 0.91760737 5.0159888
3.5999999 0.91470623 5.0147691
3.5999999 0.92796713 5.0182347
3.72 0.95299757 5.0167046
8.2480462e-08 1.1891966 5.0100579
9.4312433e-08 1.3597891 5.0142808
7.009613 1.3570806 5.0128555
9.6046634e-08 1.3847926 5.0193629
0.23999988 1.5057831 5.0153518
1.2169508e-07 1.7545899 5.0152221
7.009613 1.7829856 5.0105252
0.23999992 1.8593835 5.019299
0.23999992 1.9396462 5.0159068
1.3615156e-07 1.9630222 5.0136199
7.2496128 2.0331666 5.0137892
0.23999992 2.0442283 5.0113173
7.009613 2.174926 5.0100045
3.72 2.1877458 5.0173383
0.23999994 2.2669189 5.0170679
3.6000001 2.2736549 5.0142617
0.23999994 2.3361623 5.0102787
1.6429024e-07 2.3687234 5.0185528
1.6509614e-07 2.380343 5.0170832
1.7351978e-07 2.5017943 5.0199509
3.7200003 2.5092874 5.0189371
0.23999995 2.6137788 5.0110631
2.0387394e-07 2.9394381 5.0138702
7.2496128 3.2204609 5.0111933
2.3517089e-07 3.3906751 5.0186739
2.3896899e-07 3.4454358 5.0152497
7.2496123 3.513907 5.0129466
2.6703037e-07 3.8500226 5.0140381
0.24000004 3.9237087 5.0148687
7.009613 4.042151 5.0121021
3.5999999 4.0623369 5.0167017
3.6000004 4.1866097 5.0181856
2.9232686e-07 4.2147455 5.0154133
7.2496128 4.2105947 5.0101447
3.7200003 4.2341833 5.0153375
7.009613 4.3927021 5.0130787
3.72 4.5207272 5.0172544
0.2400001 4.6503334 5.0199494
3.2575687e-07 4.6967363 5.0141802
7.009613 4.6942353 5.0116429
0.2400001 4.7287564 5.0178905
3.4148042e-07 4.9234371 5.0162621
3.7200003 5.0235405 5.0115962
3.6021669e-07 5.1935754 5.0160933
7.0096135 5.23034 5.0165505
0.24000014 5.3052845 5.0179005
7.2496128 5.5704145 5.0116811
7.2496128 5.8906274 5.0176821
3.7200005 5.9271221 5.0154943
4.1160089e-07 5.9344292 5.0128851
4.1894438e-07 6.0403066 5.0102959
2.5000002 6.1555538 5.0152664
7.2496133 6.4388628 5.016675
7.2496133 6.4431705 5.0161023
2.5000002 6.4576159 5.0194788
2.5000002 6.5315185 5.0138493
7.0096135 6.5571303 5.0158219
0.24000023 6.6334157 5.017251
3.6000004 6.818059 5.0126624
3.6000004 6.8799071 5.0155635
7.009614 6.870337 5.0185571
3.6000001 6.9118538 5.0115294
7.2496133 6.9937353 5.0130014
3.6000001 7.0901237 5.0178432
7.2496133 7.1314597 5.0180993
3.6000001 7.1460862 5.0186057
3.6000001 7.2045574 5.0154986
0.24000025 7.3951311 5.012547
7.0096135 7.7104449 5.0151482
3.5999999 7.9408565 5.019515
4.7683716e-07 7.9518542 5.0184021
7.2496133 7.9512339 5.0130367
4.7683716e-07 8.1228285 5.0191021
2.5000005 8.2424126 5.0147734
3.6000004 8.2817078 5.0160375
7.0096135 8.3426476 5.0196404
3.7200005 8.3534851 5.0116453
3.7200003 8.4036112 5.0100374
7.0096135 8.4933376 5.0188985
3.7200003 8.5711632 5.0113392
7.2496133 8.6025324 5.0109148
0.24000031 8.6463213 5.0199113
2.3850005 8.6824093 5.0127397
2.5000005 8.6825848 5.0189819
2.3850005 8.7175207 5.0191107
2.5000005 8.835145 5.0169721
2.5000005 8.8517609 5.017302
7.2496128 8.8549194 5.0171003
7.2496128 9.1463709 5.010263
2.5000005 9.2326584 5.0110283
4.7683716e-07 9.3113613 5.0170441
7.0096135 9.3461494 5.0168905
2.3850005 9.3734913 5.010747
3.6000001 9.4318628 5.0139313
3.7200003 9.4305325 5.0141692
3.7200003 9.4402723 5.0121264
7.0592504 9.4499998 5.019341
7.7643118 9.4499998 5.01682
7.9963284 9.4499998 5.010438
2.3850007 9.4803829 5.017951
3.6000004 9.5166492 5.014163
4.7683716e-07 9.5341053 5.011353
7.009613 9.5432053 5.019619
0.40839112 9.6400003 5.0179081
2.1052611 9.6400003 5.0178599
2.5835164 9.6400003 5.0136676
2.5956519 9.6400003 5.0164008
3.049715 9.6400003 5.0189238
3.2652116 9.6400003 5.0165925
3.374815 9.6400003 5.0132504
7.0096135 9.6401672 5.0156875
7.7472043 9.6899996 5.0141582
7.8598528 9.6899996 5.0135117
7.8534551 9.7870884 5.019021
4.7683716e-07 9.8247252 5.012754
3.6000004 9.8354998 5.0181556
0.2400004 9.8594275 5.0149851
1.6499687 9.8799992 5.0153637
1.8580999 9.8799992 5.0183501
0.28942162 9.8800001 5.0131083
0.66041744 9.8800001 5.0164909
0.71306002 9.8800001 5.0114594
1.1118231 9.8800001 5.0142331
1.7902325 9.8800001 5.0152931
2.2966731 9.8800001 5.0133615
3.0738897 9.8800001 5.0148239
3.1638734 9.8800001 5.0100594
3.5283444 9.8800001 5.011106
7.846076 9.9167786 5.010139
8.0853186 9.936902 5.0187798
3.6000004 10.153886 5.0186725
3.7200005 10.151021 5.0147758
3.6000004 10.188753 5.019186
7.8265524 10.2599 5.019599
8.0641785 10.308435 5.0131941
4.7683716e-07 10.507433 5.0193772
0.24000044 10.532028 5.0132885
0.24000047 11.0116 5.0165844
0.24000049 11.076229 5.0105839
4.7683716e-07 11.08526 5.0119119
4.7683716e-07 11.130885 5.0172701
0.24000049 11.175262 5.0168724
0.24000049 11.182402 5.014432
0.24000052 11.540275 5.0180645
4.7683716e-07 11.662012 5.0190725
3.7200005 11.665941 5.0150442
3.7200003 11.677786 5.017374
7.98664 11.671159 5.0138097
7.9804745 11.779514 5.0154963
7.7368999 11.835506 5.0133219
4.7683716e-07 11.864799 5.0104475
3.6000004 11.897311 5.0141835
7.9628067 12.090022 5.0122733
3.6000004 12.25652 5.0169649
3.6000004 12.274363 5.014183
7.9434242 12.430658 5.0182247
3.6000004 12.456478 5.0111213
4.7683716e-07 12.544568 5.0128355
4.7683716e-07 12.583988 5.012763
0.24000061 12.728814 5.0162992
7.921546 12.815165 5.0108175
3.6000004 12.836488 5.01405
4.7683716e-07 12.870151 5.0156803
3.7200005 12.878759 5.0108104
7.6777463 12.875117 5.0187163
3.7200005 12.894179 5.0110283
0.24000064 13.151981 5.013535
0.24000064 13.23159 5.0133543
4.7683716e-07 13.4881 5.0122886
0.24000068 13.625583 5.0122495
7.8455272 14.151157 5.014854
7.0564113 -3.5762787e-07 5.0286684
7.2300782 -3.5762787e-07 5.0288644
1.3797167e-08 0.19892645 5.0298495
0.2399998 0.24652523 5.0266676
0.2399998 0.36604181 5.0266485
0.2399998 0.49678928 5.0282636
3.6000001 0.50491005 5.0251803
3.72 0.64796531 5.0240898
7.2496128 0.72227985 5.025074
5.3930037e-08 0.77755898 5.0286627
3.72 0.83158082 5.026021
7.2496133 0.8957718 5.0246301
0.23999983 1.002041 5.0253901
7.009613 1.0368565 5.0277376
3.7200003 1.0828369 5.0271773
7.6162237e-08 1.0981011 5.0241761
3.72 1.2732646 5.0231638
7.009613 1.301434 5.021843
3.5999999 1.3435276 5.0200462
9.8448744e-08 1.4194261 5.0299535
3.72 1.6246662 5.0284905
0.23999989 1.6794163 5.0206099
7.009613 1.6765862 5.020493
3.5999999 1.7148935 5.0265369
3.7200003 1.7701855 5.0274391
3.6000001 1.7936995 5.0283308
3.5999999 1.8237807 5.021482
1.2722042e-07 1.8342537 5.0284791
0.23999991 1.8501413 5.0277324
0.23999992 2.0265508 5.0208535
7.009613 2.1025908 5.02561
3.7200003 2.2417643 5.0299611
0.23999992 2.290468 5.0253735
3.7200003 2.48663 5.0256882
3.6000001 2.4960849 5.0200796
7.009613 2.4944882 5.0290937
3.6000001 2.6913071 5.0225267
3.5999999 2.9037271 5.0232129
3.6000004 2.9945512 5.0224161
2.0904289e-07 3.0139639 5.0262051
0.23999998 3.1019886 5.0264931
7.009613 3.2182782 5.0248356
2.2539804e-07 3.2497709 5.0250988
7.2496128 3.3479416 5.0268798
2.3343944e-07 3.3657112 5.0223465
7.009613 3.5095179 5.0265079
3.7200003 3.6324263 5.0210838
7.2496128 3.6525755 5.0252638
0.24000004 3.6862416 5.0268259
7.2496128 3.760026 5.0221453
0.24000004 3.7846141 5.0247827
7.2496128 3.8467605 5.0298128
3.7200003 3.9646034 5.0205774
3.7200003 4.0568056 5.0240865
3.5999999 4.0803504 5.0236263
2.900224e-07 4.18152 5.0210023
2.9270231e-07 4.2201586 5.0208278
7.009613 4.3994904 5.0220227
7.2496128 4.4341135 5.0227823
7.2496128 4.5075698 5.0292053
7.2496133 4.5148401 5.027564
3.7200003 4.581284 5.0293379
3.2203133e-07 4.6430221 5.0263801
7.2496128 4.6642513 5.0284319
7.009613 4.7292342 5.0298505
0.2400001 4.8238668 5.0262585
0.2400001 4.8532767 5.027133
0.24000013 4.923862 5.0251436
3.7200003 4.9855289 5.0248327
3.6000001 5.0131454 5.0292797
3.7200003 5.0198369 5.0222311
3.6000001 5.1614594 5.0285139
7.0096135 5.2003551 5.0246992
3.6491855e-07 5.2613664 5.0286341
7.2496128 5.2719612 5.0269403
7.0096135 5.3570743 5.0252357
3.7465173e-07 5.4016991 5.0253263
0.24000016 5.5308342 5.021234
7.009613 5.5591173 5.0245857
3.6000004 5.5764732 5.0234733
7.009613 5.6833835 5.0277023
7.2496128 5.8597865 5.0251675
7.2496138 5.9373851 5.026722
2.417855 5.9499998 5.0283399
4.150244e-07 5.9837885 5.02321
7.2496133 6.014883 5.0234895
7.2496128 6.028379 5.0200257
7.2496128 6.0573988 5.0244799
4.204486e-07 6.0619941 5.0290918
3.7200003 6.0626135 5.0265274
2.2600002 6.0729561 5.0299258
3.7200003 6.0716391 5.028141
4.3427346e-07 6.2613201 5.0267086
4.4099454e-07 6.3582244 5.0219336
2.2600002 6.3599772 5.0241089
7.0096135 6.4157977 5.0206585
2.2600002 6.4870849 5.0238895
7.009613 6.5621767 5.0262318
7.2496133 6.5694799 5.0269351
7.2496133 6.5944271 5.0211296
0.24000023 6.6204076 5.0289207
0.24000023 6.7041264 5.0229769
7.2496133 6.903769 5.0239263
3.6000001 6.9590101 5.0280323
7.009614 7.0116739 5.0293193
7.0096135 7.1726661 5.0220952
7.009614 7.3117795 5.028986
7.2496133 7.3599467 5.0284481
7.009614 7.5468798 5.0231862
7.009613 7.5534143 5.0234151
0.24000025 7.5776548 5.0233765
7.0096135 7.6285563 5.0250278
7.2496128 7.631186 5.0260391
0.24000025 7.7155552 5.0234594
7.009613 7.7811751 5.0271249
4.7683716e-07 7.8399405 5.0295596
0.24000025 7.8844442 5.0256729
7.2496133 7.8919711 5.0287728
2.3850002 8.086216 5.0218754
0.24000026 8.1063051 5.0221925
0.24000026 8.170804 5.0264235
2.5000002 8.2359648 5.0235071
7.2496128 8.3674774 5.0261087
2.3850005 8.4800615 5.0223646
3.7200005 8.6340876 5.0282612
0.24000031 8.6962442 5.0266147
2.5000005 8.8943272 5.0209379
2.5000005 9.0423107 5.0250869
4.7683716e-07 9.1443233 5.0248337
3.6000004 9.3233404 5.0253587
7.1430206 9.4499998 5.020256
7.5415406 9.4499998 5.0252142
7.6166048 9.4499998 5.0233011
0.24000037 9.5442638 5.0225382
1.5888084 9.6400003 5.0275965
2.5586188 9.6400003 5.0249448
3.1353664 9.6400003 5.0266552
7.8116851 9.6899996 5.0229435
7.8980794 9.6900005 5.0256433
8.0188046 9.6900005 5.0237789
3.7200003 9.7337523 5.0214314
3.6000004 9.7408609 5.0260015
7.8549261 9.7612419 5.0267639
3.7200005 9.841897 5.0217562
0.24000023 9.8790503 5.0256343
1.4121519 9.8800011 5.0216131
1.5867003 9.8800011 5.0298672
2.1331708 9.8800001 5.0223675
2.3148839 9.8800001 5.0253367
2.5236804 9.8800001 5.0235615
2.6825132 9.8800001 5.0207319
2.7258718 9.8800001 5.0269089
3.0974212 9.8800001 5.0215073
3.5033567 9.8800001 5.0219398
0.2400004 9.9288492 5.0229168
3.6000004 9.9518089 5.0246959
3.6000004 9.9669085 5.0290785
3.7200005 9.9654694 5.0225539
8.0832481 9.973299 5.0252161
3.7200005 9.997612 5.0242677
0.2400004 10.012511 5.0219736
8.0796909 10.035807 5.0255766
7.8389583 10.041874 5.0276594
0.24000041 10.07049 5.0267467
0.24000043 10.453388 5.0232573
7.794374 10.825424 5.024569
7.7907782 10.88861 5.0221863
0.24000047 11.003223 5.0263519
8.0210352 11.066673 5.0214949
4.7683716e-07 11.074009 5.0226126
0.24000049 11.456422 5.0287118
0.24000052 11.468204 5.02878
3.7200005 11.515297 5.0259805
7.9948697 11.526535 5.0244865
7.9897089 11.617229 5.0249925
7.748292 11.635296 5.022161
7.9868422 11.667609 5.0212679
3.7200003 11.755446 5.0229607
3.6000004 11.915977 5.024034
0.24000055 12.051559 5.0225792
7.9627719 12.090635 5.020299
3.6000004 12.12322 5.0265436
4.7683716e-07 12.136508 5.0205369
7.9593797 12.150254 5.0252614
3.7200003 12.465823 5.0297341
3.7200005 12.479341 5.0246649
3.7200003 12.513735 5.0252743
7.698247 12.51481 5.0217915
0.24000059 12.571579 5.0245328
7.6858792 12.732173 5.0263104
3.7200005 12.812174 5.0200949
7.6778021 12.874131 5.0251818
7.9108248 13.003583 5.0200634
7.6683631 13.040026 5.0288649
7.6675301 13.054665 5.0299339
7.6536226 13.29908 5.0286503
7.8823977 13.503185 5.0217962
7.8817902 13.513864 5.0217237
0.24000067 13.643862 5.0209284
0.24000068 13.660682 5.0264325
7.8734674 13.66013 5.0282145
7.6306448 13.702904 5.0287127
7.8633728 13.837543 5.028625
4.7683716e-07 13.849577 5.0227237
0.24000071 14.247507 5.0246277
7.8384447 14.275641 5.0202332
7.5960646 14.310646 5.0244751
0.24000072 14.337316 5.0296679
0.23999977 0.037361048 5.0395207
7.009613 0.10817543 5.0340848
1.1735076e-08 0.16919538 5.0307455
7.2496128 0.21060905 5.0310888
0.2399998 0.30993119 5.0353909
3.5999999 0.36900702 5.0305514
3.5999999 0.42645532 5.0387697
3.8418555e-08 0.55391568 5.03159
3.5999999 0.58913875 5.0331798
5.0601017e-08 0.72956139 5.0392714
7.009613 0.73062783 5.0313687
0.23999982 0.74483764 5.0342679
0.23999983 0.95993549 5.0341001
3.72 1.0383202 5.0339489
7.009613 1.1934997 5.0324183
7.2496128 1.2407995 5.03408
7.009613 1.3459334 5.0329056
7.009613 1.3996054 5.0399609
0.23999989 1.6367822 5.0360446
1.233219e-07 1.7780452 5.0393424
7.2496128 1.9952211 5.0307856
1.4108828e-07 2.0341995 5.0321994
1.4268653e-07 2.0572431 5.0376482
7.009613 2.0866582 5.0373001
7.2496128 2.2193437 5.0374451
3.5999999 2.2381716 5.0393419
1.5988711e-07 2.3052394 5.0350175
1.6996007e-07 2.4504709 5.0341744
0.23999995 2.4921298 5.0331488
3.6000004 2.568289 5.0384111
7.009613 2.5708351 5.0357628
7.009613 2.6323879 5.036274
0.23999995 2.6428778 5.0353103
3.7200003 2.6524289 5.0367107
0.23999995 2.6955504 5.0326715
3.72 2.7384779 5.0367622
2.0020846e-07 2.8865895 5.0350003
3.6000001 2.8816082 5.0370593
0.23999998 2.9548576 5.0304499
7.009613 2.9661131 5.0354018
3.6000001 2.9763515 5.0307493
2.0713183e-07 2.9864104 5.0324802
3.7200003 3.060117 5.039197
7.009613 3.0638363 5.0308275
0.23999998 3.1077538 5.0332351
7.2496128 3.1577947 5.0304608
3.7200003 3.2431302 5.0375385
7.009613 3.2505178 5.0321789
2.3179719e-07 3.3420334 5.0350585
7.2496128 3.3686192 5.0387678
3.6000001 3.3925173 5.0366096
3.7200003 3.3928826 5.0333123
7.009613 3.4867039 5.0313163
0.24000002 3.5416517 5.0373688
7.2496128 3.6032448 5.0312891
0.24000002 3.794929 5.0356507
3.6000001 4.0324097 5.0395317
7.009613 4.2739263 5.0356355
7.009613 4.6093392 5.0314894
7.009613 4.6375513 5.0364437
3.7200003 4.6533933 5.0344162
0.2400001 4.6893282 5.0339022
7.2496128 4.7044001 5.036159
3.5999999 4.7145777 5.0390835
7.2496128 4.7683067 5.0382748
3.6000001 4.7716255 5.0357819
0.24000011 4.9012027 5.0340796
0.2400001 4.9759793 5.0378337
7.2496128 5.1386285 5.0388756
3.5999999 5.2081237 5.0393319
3.6400129e-07 5.2481418 5.0358634
0.24000014 5.2888708 5.0356636
7.0096135 5.3969493 5.0332789
3.7200003 5.5338964 5.0339394
7.0096135 5.7109799 5.0304561
3.7200003 5.7275777 5.0351276
3.7200003 5.8079505 5.0328579
0.24000019 5.9528265 5.0304646
2.3669043 5.9499998 5.0336246
3.7200003 5.9703703 5.0376244
2.2600002 5.9863186 5.0366111
0.24000019 6.0495343 5.0382991
7.2496133 6.1419048 5.0351305
2.2600002 6.1878543 5.0351567
7.2496133 6.1871829 5.0388322
7.2496128 6.2697306 5.0344067
0.2400002 6.2898464 5.033556
2.2600002 6.3224974 5.0324659
7.0096135 6.7727222 5.0357246
3.6000004 6.818007 5.0366888
3.7200003 6.8458023 5.0338478
7.0096135 7.0037236 5.0302744
7.009614 7.0367479 5.0313826
3.6000001 7.5607738 5.033555
7.0096135 7.6593475 5.0342708
3.6000001 7.8004556 5.0398874
7.009613 7.8448434 5.0315247
7.0096135 7.8535991 5.0343275
3.6000004 7.8843799 5.0309715
0.24000025 7.9425783 5.0333667
4.7683716e-07 8.0077381 5.0384626
3.6000004 8.0507374 5.0320721
0.24000026 8.1720438 5.0304208
0.24000028 8.2328491 5.0357676
2.5000005 8.2472801 5.0336533
2.3850002 8.3626862 5.0305285
2.5000005 8.415164 5.0379357
3.6000004 8.4694834 5.0377507
7.0096135 8.5329695 5.031002
2.3850005 8.668478 5.0313082
0.24000032 8.9058113 5.0327621
7.2496128 8.901597 5.0302315
2.5000005 8.9921188 5.0318503
4.7683716e-07 9.0054932 5.0324497
7.2496128 9.023859 5.0362234
7.0096135 9.0369654 5.0354333
2.5000005 9.1130123 5.0338273
7.2496138 9.1174335 5.0359831
7.2496128 9.1266756 5.0382304
4.7683716e-07 9.1355562 5.0396795
3.6000001 9.2627344 5.0394678
3.6000004 9.3241138 5.038023
4.7683716e-07 9.386713 5.0360832
0.24000035 9.3988237 5.0385299
2.3850005 9.3947268 5.0375905
7.009613 9.4266586 5.0329676
7.0490503 9.4499989 5.0338106
7.0614505 9.4499998 5.0360694
7.4650631 9.4499998 5.0307045
8.0308504 9.4499998 5.0367975
8.0653629 9.4499998 5.039854
2.5000005 9.4604378 5.031354
4.7683716e-07 9.4701853 5.0393372
2.5000002 9.4744511 5.0356879
8.10993 9.5043669 5.035459
0.24000037 9.5125065 5.0381956
4.7683716e-07 9.5350294 5.0310307
2.3850005 9.5312176 5.031549
8.1066685 9.5616741 5.0361624
2.3850005 9.5957766 5.0368772
3.3945174 9.6399994 5.0304832
0.65433705 9.6400013 5.0361242
1.3928061 9.6400003 5.0378428
1.9183686 9.6400003 5.0397549
1.9971709 9.6400003 5.0399218
2.9551754 9.6400003 5.0323329
3.2119727 9.6400003 5.0317574
3.5940688 9.6400003 5.0327163
7.2244654 9.6899996 5.0362911
7.6641474 9.6899996 5.0308247
7.7858186 9.6899996 5.0379672
7.9129429 9.6899996 5.0311766
8.0878983 9.6899996 5.0335369
7.787787 9.6900005 5.0387254
3.6000004 9.7211199 5.0311832
4.7683716e-07 9.7453728 5.031373
0.2400004 9.8018064 5.0394745
0.2400004 9.8261051 5.0306592
7.8513627 9.8238583 5.0388269
0.99526417 9.8799992 5.0368872
1.1597087 9.8799992 5.0352898
0.34570557 9.8800001 5.0309319
0.59954256 9.8800001 5.0359101
0.99892646 9.8800001 5.0330977
1.4309512 9.8800001 5.0337591
1.7761365 9.8800001 5.034596
1.9607575 9.8800001 5.031755
2.2172353 9.8800001 5.0343089
2.2619271 9.8800001 5.0361047
2.5775907 9.8800001 5.0364847
3.3166666 9.8800001 5.0379152
3.5770781 9.8800001 5.0374041
8.0834198 9.9702787 5.0384369
7.8361979 10.090384 5.0319681
0.24000041 10.316 5.0347881
0.24000043 10.375799 5.0392127
0.24000044 10.442106 5.0314217
4.7683716e-07 10.503366 5.0363097
7.8064799 10.61267 5.0338178
8.0385971 10.758011 5.0390205
8.0345135 10.829806 5.0325737
8.0344095 10.831637 5.0370984
0.24000046 10.87233 5.0338483
7.7847462 10.994629 5.0384974
7.7809038 11.062142 5.0302396
3.7200005 11.561787 5.0338931
4.7683716e-07 11.62987 5.035531
3.6000006 11.624058 5.0315166
4.7683716e-07 11.646399 5.0308676
0.24000053 11.687054 5.0309296
4.7683716e-07 11.712914 5.039083
7.9737959 11.896899 5.0385151
4.7683716e-07 12.334235 5.0344505
3.7200007 12.347115 5.0305166
3.7200005 12.409603 5.0303617
7.7038927 12.415592 5.0349112
0.24000059 12.654535 5.0398521
3.7200007 12.748522 5.0326481
7.6854014 12.740576 5.039268
3.6000001 12.81259 5.0376415
0.24000061 12.950337 5.036181
3.6000006 12.98732 5.0364485
7.9119606 12.983635 5.0396156
0.24000064 13.007073 5.038271
7.9034705 13.132832 5.0394726
4.7683716e-07 13.174761 5.0389752
7.642065 13.502211 5.0388174
7.6257839 13.788349 5.0358329
0.24000069 14.018423 5.0374298
7.8294563 14.433608 5.0378199
0.058516268 14.44 5.0310612
7.009613 0.055819437 5.0483632
7.009613 0.16295418 5.0459018
3.72 0.24539916 5.0423956
7.009613 0.27653182 5.0469308
7.2496128 0.34135714 5.0425863
0.2399998 0.414242 5.0436511
7.009613 0.41755316 5.0431733
0.23999983 0.47749346 5.0483112
3.5435129e-08 0.5109008 5.0436349
7.009613 0.54336172 5.0441141
7.009613 0.65650743 5.0479822
3.7200003 0.75413632 5.049614
3.5999999 0.90893334 5.0482845
7.009613 0.96872002 5.0446815
0.23999985 1.0450644 5.0434632
3.72 1.1291074 5.048769
0.23999985 1.1407771 5.0407405
8.408027e-08 1.2122626 5.0459981
8.7647891e-08 1.2637002 5.0402741
9.0146841e-08 1.2997299 5.0452814
7.2496128 1.4164612 5.0477095
0.23999986 1.4249142 5.0408173
1.1834166e-07 1.7062407 5.0468149
7.2496128 1.7394508 5.0448155
1.2973219e-07 1.8704683 5.0493999
1.3178727e-07 1.9000983 5.0436015
3.72 1.9042809 5.0418525
0.23999989 1.9163657 5.0467649
3.7200003 1.9147786 5.0471582
7.009613 2.0604706 5.0409198
3.6000001 2.1094553 5.041255
3.7200003 2.2077172 5.0424123
7.2496128 2.3135526 5.0408363
3.5999999 2.3659539 5.0460987
7.009613 2.4731765 5.0457773
3.7200003 2.555465 5.0455618
3.5999999 2.7336721 5.0454016
0.23999995 2.7634583 5.0402107
3.6000001 2.7639077 5.0490241
3.7200003 2.875031 5.0490375
7.009613 3.0143023 5.0474443
3.6000001 3.0644498 5.0417738
3.7200003 3.1569717 5.040884
3.6000001 3.200022 5.042028
3.7200003 3.2082973 5.0417671
3.7200003 3.232548 5.046216
3.7200003 3.3614759 5.0478549
7.2496128 3.4031887 5.0422297
2.3770237e-07 3.4271739 5.0486908
0.24000001 3.4217103 5.0453062
3.6000004 3.7883506 5.0444226
0.24000004 3.8151762 5.0415292
3.5999999 3.8333807 5.0443625
2.6953256e-07 3.8860989 5.0471549
7.009613 4.0409255 5.0403914
2.8250801e-07 4.0731778 5.0487967
2.8656282e-07 4.13164 5.0442944
2.8748579e-07 4.1449466 5.0482116
7.2496133 4.2993407 5.0474181
7.2496128 4.3472323 5.0445228
3.7200003 4.3583956 5.0425148
3.7200003 4.3786097 5.0408163
3.7200003 4.5655746 5.0480738
7.0096135 4.7252584 5.0400572
7.2496128 4.8430667 5.0428724
7.2496128 5.0770044 5.0446911
3.569551e-07 5.1465502 5.0455213
3.6000001 5.2558784 5.0421958
0.24000016 5.2653413 5.0428424
3.7256495e-07 5.3716116 5.0440197
7.2496128 5.3807297 5.0419664
7.0096135 5.4136848 5.0485191
7.0096135 5.4443092 5.0456877
3.6000004 5.4811954 5.0421925
7.0096135 5.4835577 5.0429869
3.7200003 5.6161013 5.0420198
0.24000019 5.8012648 5.0486565
7.2496133 5.8124027 5.0486503
3.6000001 5.9890337 5.0416594
7.0096135 6.0095191 5.043736
7.2496128 6.030653 5.0409117
2.5000002 6.1151276 5.0442963
4.2451208e-07 6.1205812 5.044621
2.2600002 6.1586442 5.044239
7.2496128 6.2087188 5.049593
7.2496133 6.3994088 5.0420246
7.2496133 6.4660716 5.0439863
3.7200003 6.5753837 5.0433683
7.0096135 6.5937872 5.0408492
4.5959425e-07 6.6263928 5.04178
7.0096135 6.6573787 5.0483398
3.7200003 6.7195368 5.0484209
0.24000025 6.7886615 5.0432138
0.24000025 6.7937422 5.0405321
3.6000004 6.7907495 5.0463743
3.7200003 6.9448385 5.0408664
7.2496133 7.1184902 5.0438671
3.7200005 7.3005991 5.0483484
7.009613 7.3504467 5.0466566
4.7683716e-07 7.4674978 5.0470619
4.7683716e-07 7.6012716 5.0440445
0.24000025 7.6721363 5.0492992
7.0096135 7.7008166 5.0497837
7.2496133 7.7002234 5.0417566
3.7200003 7.7700095 5.0458655
3.5999999 7.8137016 5.0476542
3.6000001 8.0590639 5.0456719
2.3850002 8.0796595 5.0499735
7.2496133 8.1602192 5.0432572
4.7683716e-07 8.213768 5.0430946
3.6000004 8.2811756 5.042479
2.3850002 8.3595438 5.0483437
4.7683716e-07 8.3967123 5.0466046
0.24000029 8.3914862 5.0454216
2.3850002 8.4341469 5.0475607
2.5000005 8.529789 5.0451026
7.2496138 8.5413322 5.0498238
3.6000004 8.5539227 5.0440631
7.2496133 8.5728359 5.0434132
4.7683716e-07 8.7493181 5.0492597
7.2496138 8.7596893 5.0442724
4.7683716e-07 8.7738752 5.0493307
4.7683716e-07 8.8260393 5.0462413
2.5000005 8.8419218 5.0452619
2.5000005 8.8650923 5.0417027
2.3850005 8.9060183 5.0483899
7.0096135 9.0599918 5.0422125
2.5000005 9.0734615 5.0454907
0.24000034 9.1466503 5.0407748
3.7200005 9.2108641 5.0436325
2.5000005 9.2837114 5.0461974
0.24000035 9.3255024 5.0447512
7.0096135 9.3560905 5.0426273
3.6000001 9.3962727 5.0434785
7.0417395 9.4499998 5.0497847
7.1771464 9.4499998 5.0425644
7.5192785 9.4499998 5.0497866
0.24000037 9.4990139 5.0445638
4.7683716e-07 9.5116711 5.0493746
3.6000004 9.5909262 5.0438137
0.24000037 9.6253233 5.0437002
1.0071509 9.6399994 5.0470605
3.05968 9.6399994 5.0426331
0.32741013 9.6400003 5.0498781
1.8032584 9.6400013 5.0487509
2.197521 9.6400003 5.0432839
2.3010552 9.6400003 5.0435104
2.505142 9.6400003 5.0478458
3.5409021 9.6400003 5.0443716
3.6000004 9.662302 5.0440202
7.267004 9.6899996 5.0433507
7.547142 9.6899996 5.0415606
7.7173128 9.6899996 5.044065
7.902616 9.6899996 5.0441589
0.24000037 9.735815 5.040072
3.6000004 9.7767429 5.0449867
0.2400004 9.8466082 5.0457592
7.8493338 9.859519 5.0478125
0.25176647 9.8800001 5.0439687
1.0256524 9.8800011 5.0410919
1.6889262 9.8800001 5.042026
3.0840602 9.8800001 5.0440249
3.6000004 10.145262 5.0495481
7.8315887 10.171389 5.0481358
8.070631 10.195029 5.0406432
4.7683716e-07 10.200548 5.0401936
4.7683716e-07 10.511804 5.0400367
7.8118691 10.517955 5.0420632
4.7683716e-07 10.659303 5.0498972
7.7986035 10.751086 5.0422206
4.7683716e-07 10.79039 5.0468349
7.7769914 11.130912 5.0476847
8.0123396 11.219501 5.0404062
8.0088587 11.280691 5.0413642
0.24000049 11.315017 5.0434666
0.2400005 11.472352 5.04743
0.24000052 11.510286 5.0418806
4.7683716e-07 11.567826 5.0496373
7.985682 11.687994 5.0451341
7.7439013 11.712461 5.0408201
3.6000004 11.735647 5.0431094
0.24000052 11.759023 5.0471559
7.9805593 11.778028 5.0446563
7.7399769 11.781426 5.0491395
4.7683716e-07 11.830282 5.0444994
0.24000053 11.867065 5.0485215
3.6000004 12.065699 5.044117
3.6000004 12.159821 5.0491114
3.7200003 12.239953 5.0428162
7.9403448 12.48479 5.0426354
3.6000004 12.496679 5.0452547
0.24000061 12.66245 5.0463624
4.7683716e-07 12.71676 5.0473366
4.7683716e-07 13.136072 5.0426784
0.24000064 13.174763 5.0455923
7.6527424 13.314554 5.0402369
4.7683716e-07 13.404957 5.0413008
7.8832331 13.488504 5.0421238
7.8815336 13.518368 5.0422192
7.6391792 13.552923 5.0443316
7.8775158 13.588964 5.0492311
4.7683716e-07 13.626215 5.0478454
7.8715425 13.693964 5.0470486
4.7683716e-07 13.715307 5.0470004
7.8698597 13.723536 5.044683
7.6259999 13.784546 5.0446219
7.8610935 13.877595 5.0458374
7.6197314 13.894712 5.042644
0.24000068 14.018822 5.0446367
4.7683716e-07 14.045124 5.0482626
7.848762 14.094313 5.0490503
7.6061282 14.133784 5.04568
0.24000072 14.359825 5.0486231
0.13808806 14.440001 5.0497775
0.14527459 0 5.0511827
7.009613 0.58621216 5.0573139
3.5999999 0.6925422 5.0566144
3.7200003 0.71712738 5.0555854
7.009613 0.78722775 5.0542545
3.6000001 0.93689972 5.0511379
7.009613 0.99984658 5.0568185
0.23999986 1.1546528 5.0578394
3.72 1.2716219 5.0546541
7.009613 1.2701613 5.0595317
0.23999986 1.2818446 5.0500917
3.7200003 1.6309574 5.0567131
3.5999999 1.6594117 5.0567389
3.7200003 1.7352111 5.0560303
3.7200003 1.8953679 5.0554719
3.5999999 1.9242704 5.057848
7.2496128 1.95116 5.0542712
0.23999991 2.025202 5.0584745
7.2496128 2.0289652 5.0501781
7.2496128 2.0813429 5.0560517
1.5481022e-07 2.2320414 5.0557442
0.23999992 2.2740119 5.0536518
7.009613 2.3034518 5.0531416
7.2496128 2.3074977 5.05791
7.2496128 2.3616934 5.0564737
3.7200003 2.394587 5.0506177
3.5999999 2.4259748 5.0555792
1.6942556e-07 2.442764 5.0555372
7.009613 2.5192637 5.0552335
3.7200003 2.5448539 5.0593114
7.2496128 2.5477233 5.0561743
3.72 2.6030684 5.0560865
3.6000001 2.6805406 5.0595093
3.72 2.8508565 5.0582328
7.2496128 2.867589 5.0507917
3.7200003 2.929548 5.0596247
2.0501726e-07 2.9559226 5.0579724
7.009613 3.0085239 5.0585866
7.2496128 3.0055985 5.0554166
3.6000001 3.0620852 5.0551381
7.2496128 3.2678554 5.0540118
0.23999999 3.2773314 5.0586157
0.24000001 3.2841382 5.0586843
3.6000001 3.3263302 5.0568361
2.3177857e-07 3.3417649 5.0587115
3.5999999 3.4250355 5.0536585
7.2496128 3.5001669 5.0539455
7.0096135 3.5599351 5.0562315
7.2496133 3.6154609 5.0584784
3.6000001 3.6632099 5.054738
3.6000004 3.7878163 5.0579166
7.2496128 3.7861023 5.0556965
7.009613 3.8231452 5.0541139
2.7271437e-07 3.9319742 5.0555768
7.2496128 4.007184 5.0536909
2.7989492e-07 4.0355024 5.0574284
3.7200003 4.0808067 5.0533075
7.2496128 4.1786857 5.0577307
3.6000004 4.2020187 5.0503888
0.24000005 4.2646012 5.0558
7.2496128 4.3150606 5.0508723
7.2496128 4.3907871 5.0533543
7.009613 4.4070964 5.0530119
0.24000007 4.543292 5.0577965
0.2400001 4.5986843 5.0585856
3.2004274e-07 4.6143508 5.0515676
3.7200005 4.670754 5.0599785
7.2496128 4.7051897 5.0542483
3.5999999 4.8086267 5.0559196
3.7200003 4.9392962 5.0522151
3.5999999 4.9589372 5.0538731
3.5999999 5.0189571 5.0508423
7.2496133 5.1413236 5.0582929
7.009613 5.3158507 5.0546184
7.0096135 5.4857135 5.0562167
7.009613 5.5390377 5.0534229
7.2496133 5.6704226 5.0542727
3.7200003 5.7062869 5.0581646
3.5999999 5.7627058 5.0516691
0.24000017 5.9492445 5.0518861
2.3549764 5.9499998 5.0559788
4.1338134e-07 5.9600992 5.0534058
2.5000002 6.063251 5.0592318
2.2600002 6.1569977 5.0540233
3.7200003 6.1569223 5.0585594
7.2496133 6.215487 5.0530977
3.5999999 6.2606378 5.0593023
0.24000022 6.3936763 5.0589948
3.7200003 6.462368 5.0594425
0.24000025 6.799252 5.0576096
3.7200003 6.9274092 5.0557928
3.6000001 6.9433608 5.0539646
7.2496138 6.9738712 5.052681
3.7200005 7.2986441 5.0576291
0.24000025 7.3174677 5.0583735
7.2496138 7.3255644 5.0581603
0.24000025 7.3678269 5.0570364
3.6000001 7.675499 5.052351
3.7200003 7.6945891 5.0536447
3.7200003 7.9379082 5.0543046
7.009613 7.9392557 5.0544758
7.009613 8.1033621 5.0597949
3.7200005 8.2653837 5.0598817
7.009613 8.3274956 5.0502996
7.0096135 8.3511143 5.0599046
2.5000005 8.566411 5.0561008
0.24000031 8.571085 5.0502367
2.3850005 8.5793619 5.0511894
2.5000005 8.6261501 5.0582118
7.009613 8.6552668 5.0587783
0.24000029 8.6696548 5.0509439
3.7200003 8.6758509 5.0515394
2.3850005 8.7313643 5.0503092
2.3850005 8.7548113 5.0587888
2.5000005 8.7870569 5.0530381
2.5000005 8.8405018 5.0573797
0.24000032 8.8658323 5.0573721
2.5000005 8.9289217 5.0530944
3.6000001 8.9686823 5.0552568
3.6000004 9.2091341 5.0500598
0.24000035 9.2716017 5.0574937
0.24000035 9.3400078 5.0578279
2.5000005 9.3628569 5.0584712
0.24000037 9.4526787 5.0552368
7.0716195 9.4499998 5.055347
7.092701 9.4499998 5.0594568
7.2515535 9.4499998 5.0532088
7.9891958 9.4499998 5.0592675
0.24000037 9.4752054 5.0586939
3.6000004 9.5230026 5.0572619
3.7200005 9.5561991 5.0572338
2.5000002 9.5807352 5.057704
4.7683716e-07 9.6348763 5.0599747
1.6650363 9.6399994 5.0509911
1.7136391 9.6399994 5.0598583
3.2051034 9.6399994 5.0502739
0.45266467 9.6400013 5.052659
0.55312479 9.6400013 5.0573015
1.1585319 9.6400003 5.05618
1.4198246 9.6400003 5.0513725
1.8317038 9.6400003 5.0585032
2.4911702 9.6400003 5.0552316
2.8680518 9.6400003 5.0591354
3.5978975 9.6400003 5.0549579
7.009614 9.6580429 5.0570273
7.4325323 9.6899996 5.0564499
7.7049212 9.6899996 5.0582137
7.7837195 9.6899996 5.0508938
7.8585691 9.697216 5.0522709
3.7200003 9.7042637 5.0578742
3.6000004 9.7429037 5.0580754
3.6000004 9.7610683 5.0502887
8.095314 9.7612209 5.059166
1.5347053 9.8799992 5.0539379
1.0926752 9.8800001 5.0538282
1.1271851 9.8800011 5.0547776
1.1505574 9.8800001 5.0592699
1.2963042 9.8800011 5.056829
1.5985609 9.8800001 5.0585895
1.6473392 9.8800001 5.0572214
2.5639479 9.8800001 5.0549755
2.7511029 9.8800001 5.0531878
3.4896116 9.8800001 5.0534043
4.7683716e-07 10.069102 5.0552721
8.0742283 10.13181 5.0503216
7.8207436 10.361988 5.0570359
0.24000043 10.444824 5.0589657
7.80476 10.642884 5.0543985
0.24000046 10.839445 5.0594039
8.0299139 10.910642 5.0528865
7.7840204 11.007381 5.0579047
0.24000049 11.090219 5.058629
8.0190611 11.101377 5.0508728
7.77771 11.118281 5.0536952
7.7763157 11.14279 5.0539465
0.2400005 11.310335 5.0572634
4.7683716e-07 11.364574 5.059648
4.7683716e-07 11.523643 5.0541935
3.6000006 11.565795 5.0562601
4.7683716e-07 11.610897 5.0531387
7.7427778 11.732203 5.0541019
7.9761205 11.85604 5.0514498
3.6000004 11.91081 5.0547695
4.7683716e-07 11.962881 5.0568295
3.7200003 12.003275 5.0563645
3.7200007 12.02853 5.0577598
0.24000055 12.037321 5.0572867
4.7683716e-07 12.132196 5.0534186
4.7683716e-07 12.184042 5.0591087
7.7056899 12.384005 5.0521059
7.7047734 12.400124 5.0566888
3.6000004 12.546317 5.0525923
4.7683716e-07 12.706934 5.0555229
7.9235334 12.780239 5.0508728
4.7683716e-07 12.79505 5.0515976
0.24000061 12.903856 5.0508533
3.7200003 12.934061 5.0542159
3.7086332 13 5.0543795
0.24000064 13.095576 5.0545802
7.9033604 13.134758 5.0527172
4.7683716e-07 13.619876 5.0529175
4.7683716e-07 13.682736 5.0557194
0.24000067 13.750885 5.0514588
4.7683716e-07 13.901253 5.0533023
7.8588147 13.917641 5.0592866
0.24000069 14.08253 5.0556321
4.7683716e-07 14.245719 5.0527592
0.24000072 14.268448 5.0526304
7.8378744 14.285663 5.0575514
0.16045588 14.44 5.0538087
0.23999977 0.022908859 5.0622668
7.2496128 0.16455661 5.0627499
1.2480887e-08 0.17994843 5.0667276
3.72 0.36794555 5.0651469
3.5999999 0.39791986 5.0603461
0.2399998 0.40551281 5.0606966
2.8836919e-08 0.41576838 5.0638008
0.2399998 0.50222051 5.0640497
3.72 0.54215753 5.0649719
7.009613 0.60847163 5.0630398
3.7199998 0.62666512 5.0676565
0.23999982 0.65479875 5.0643258
5.138169e-08 0.74081707 5.0689263
7.009613 0.8318997 5.0665364
6.0065211e-08 0.86601537 5.0693445
6.4953525e-08 0.93649477 5.0652719
3.72 0.96566397 5.0636454
0.23999985 1.064191 5.0628581
7.009613 1.0734744 5.0695238
3.6000001 1.0977269 5.0601273
3.5999999 1.2243286 5.0663815
7.009613 1.2296075 5.0663342
3.72 1.2493379 5.0651889
0.23999986 1.2726941 5.0687575
3.72 1.3448949 5.0645032
3.72 1.3874041 5.0658207
7.2496128 1.4097034 5.0697823
1.059889e-07 1.5281395 5.0638828
0.23999988 1.5228583 5.0618181
1.1155431e-07 1.608381 5.0683913
0.23999989 1.6584646 5.0679617
0.23999989 1.7370247 5.0675097
0.23999989 1.7418096 5.0616326
7.2496128 1.8090584 5.0645714
3.72 1.8528748 5.061686
7.2496128 1.9693992 5.0674076
3.7200003 2.0139589 5.0675049
3.7200003 2.0442662 5.0615664
3.6000001 2.3055415 5.0695372
1.6292059e-07 2.3489759 5.0670037
1.6378648e-07 2.3614602 5.0650487
3.7200003 2.395124 5.0691814
0.23999995 2.5403588 5.0604954
0.23999996 2.6774807 5.0664501
3.5999999 2.750144 5.0639353
7.009613 2.8150957 5.0607891
1.9869427e-07 2.864758 5.0668001
3.7200003 2.9466383 5.0656099
7.2496128 3.034971 5.0624442
3.6000001 3.1397786 5.0601215
3.6000001 3.2977889 5.0699058
3.6000004 3.3870049 5.0652537
7.009613 3.5640755 5.0656543
2.4953772e-07 3.5978148 5.0686598
3.6000001 3.6161306 5.0685849
7.2496128 3.6359518 5.0669513
2.5831071e-07 3.7243032 5.0649114
7.009613 3.7426846 5.0620775
2.6134254e-07 3.7680159 5.0603981
3.7200003 3.935482 5.0681939
3.6000001 4.2624826 5.0687551
0.24000007 4.2852249 5.0673518
7.0096135 4.3017712 5.0694065
0.24000007 4.3471498 5.0685043
7.2496128 4.4256058 5.0603409
7.2496128 4.6263251 5.062149
3.6000001 4.7135515 5.0685453
3.6000001 4.7542677 5.0616879
7.2496133 4.9260941 5.0699987
7.2496128 4.9704399 5.0651345
7.2496123 5.0697966 5.0643282
0.24000011 5.0902896 5.0685062
3.7200003 5.2953568 5.0690846
0.24000016 5.3801093 5.0636606
0.24000016 5.5522847 5.0620337
3.7200003 5.7284594 5.0662351
7.0096135 5.7477007 5.0694952
0.24000016 5.7677917 5.064714
4.0211853e-07 5.7977128 5.0623126
7.009613 5.8115664 5.0618491
2.4596806 5.9499993 5.0633898
7.2496133 5.9880085 5.0621762
7.0096135 6.0171061 5.065269
0.24000019 6.115335 5.0600991
7.0096135 6.1276665 5.0641356
2.2600002 6.139472 5.0694046
2.2600002 6.1798 5.0684462
4.3623996e-07 6.2896729 5.0634632
2.2600002 6.3561296 5.0671234
3.5999999 6.3719206 5.0668135
3.6000001 6.3819184 5.06673
7.0096135 6.4813228 5.0627375
7.009614 6.5089068 5.0641427
4.5247563e-07 6.523757 5.0621958
2.5000002 6.5324397 5.0625625
4.5436855e-07 6.5510492 5.0643425
2.4894211 6.5500002 5.0622349
0.24000023 6.6841283 5.0633025
0.24000025 6.7206554 5.069725
7.2496133 6.7816162 5.0613761
7.2496133 6.8748121 5.063859
3.6000004 6.9332037 5.0645881
7.2496133 7.0826397 5.0635738
7.2496128 7.1552186 5.0649014
3.7200003 7.173049 5.0670924
7.009613 7.3109369 5.0677505
4.7683716e-07 7.3508916 5.0626721
4.7683716e-07 7.4696226 5.0663366
7.2496133 7.5671043 5.0670214
3.6000001 7.5985713 5.0636024
0.24000025 7.823555 5.0631685
4.7683716e-07 7.9101405 5.0624003
0.24000028 8.0330839 5.0663128
3.7200003 8.1294975 5.0611763
7.009614 8.1349478 5.0697098
2.5000002 8.1400166 5.0657959
7.2496133 8.18997 5.06534
3.7200003 8.20121 5.0618639
4.7683716e-07 8.2509661 5.0613394
2.3850002 8.366168 5.069459
2.5000002 8.4018898 5.0650935
7.2496128 8.4143429 5.061305
2.3850002 8.4219847 5.0626049
3.6000004 8.5608902 5.0609875
3.7200005 8.560215 5.0696015
0.24000029 8.676753 5.0645938
7.0096135 8.6796532 5.0651159
7.2496138 8.8410797 5.0616889
7.2496138 8.8544693 5.0637484
2.5000005 8.9553862 5.065114
2.5000005 9.0877237 5.0685034
3.6000004 9.1256323 5.0638895
3.7200005 9.1342907 5.063416
4.7683716e-07 9.2027988 5.0688491
7.0096135 9.2883387 5.0613141
4.7683716e-07 9.3588448 5.0605464
2.3850005 9.3723755 5.0687022
2.5000005 9.4061909 5.0614734
3.6000004 9.4158459 5.0645294
7.0166931 9.4499998 5.0646853
7.0804725 9.4499998 5.066359
7.1270614 9.4499998 5.0637751
7.1477575 9.4499998 5.0671372
8.0028744 9.4499998 5.0603533
8.1096516 9.5092487 5.0604658
3.6000004 9.5740185 5.0638909
2.3850005 9.5902653 5.0601473
4.7683716e-07 9.6221771 5.0642934
0.45093006 9.6400003 5.0611439
1.0883452 9.6400003 5.0665908
1.1762204 9.6400003 5.0674825
1.8467226 9.6400003 5.0682511
2.0500541 9.6400013 5.0622993
2.396091 9.6400003 5.0687728
2.7646651 9.6400003 5.0656004
3.2408488 9.6400003 5.0628395
3.5741649 9.6400013 5.0652657
7.3873625 9.6899986 5.0615845
7.6206121 9.6899996 5.0645494
7.8557749 9.6899996 5.0660768
7.9213424 9.6899996 5.066741
3.6000004 9.699543 5.0693908
8.0988064 9.6998482 5.0614772
3.6000004 9.7341862 5.0688119
0.2400004 9.7768517 5.0620971
4.7683716e-07 9.7959805 5.0634642
3.6000006 9.815589 5.0620408
0.60879087 9.8799992 5.0652657
0.70849788 9.8800001 5.0629997
1.8048626 9.8800011 5.062664
2.9266725 9.8800001 5.0673995
3.1369624 9.8800001 5.0635824
3.7200005 9.8872957 5.0621538
7.8478298 9.8859625 5.063519
8.0871582 9.9045725 5.0653243
3.7200007 9.9401627 5.0642986
3.5999999 10.049895 5.0668945
3.6000006 10.110722 5.0642457
3.7200005 10.162458 5.069314
3.6000004 10.225872 5.0614319
3.7200005 10.25562 5.0670958
0.24000043 10.269098 5.0610981
8.0506306 10.546542 5.0637236
0.24000046 10.655663 5.0635595
0.24000046 10.780499 5.0610609
8.033638 10.84518 5.0672951
4.7683716e-07 10.889471 5.0638595
7.7802877 11.072985 5.0617304
4.7683716e-07 11.21054 5.0678864
4.7683716e-07 11.411654 5.0647564
0.24000052 11.410861 5.0602341
0.2400005 11.489141 5.0645676
7.7473145 11.652471 5.0627937
3.6000001 11.671639 5.0644383
4.7683716e-07 11.873086 5.0649209
4.7683716e-07 12.038093 5.067481
7.9651742 12.048413 5.0698156
3.6000004 12.206793 5.0601292
0.24000058 12.370987 5.0651498
3.6000004 12.494085 5.0600395
3.7200005 12.507092 5.0685463
7.6895819 12.667109 5.0653305
3.7200005 12.720627 5.0644226
7.6833863 12.775997 5.060976
3.6000004 12.858195 5.0668344
3.7200005 12.864728 5.0617027
0.24000062 12.984984 5.0640936
7.9071331 13.068466 5.0617857
7.8957205 13.269038 5.0647554
7.6541171 13.290394 5.0616407
0.24000065 13.350093 5.0641737
0.24000065 13.393608 5.0651398
7.8841357 13.47264 5.0695915
0.24000067 13.607595 5.0672908
0.24000067 13.616964 5.0644245
7.8621011 13.859888 5.0655007
4.7683716e-07 13.922422 5.0693884
7.8576989 13.937248 5.0629101
7.8571959 13.946094 5.0625587
4.7683716e-07 14.039964 5.0692663
7.6072116 14.114739 5.0691462
0.24000072 14.289473 5.0682454
0.15171219 14.440001 5.0608597
0.23999979 0.09440884 5.0721688
9.5462172e-09 0.1376366 5.0796728
7.009613 0.22283709 5.077414
3.6911743 0.23999977 5.0713167
1.9454516e-08 0.28049368 5.0764565
3.7200003 0.36609715 5.0767064
3.5999999 0.39719403 5.0725656
3.5999999 0.51723671 5.0781603
0.23999983 0.75973445 5.0752945
3.7200003 0.75852799 5.0797362
3.5999999 0.79399312 5.0765805
7.2496128 0.87826324 5.0793724
3.5999999 0.90281785 5.0795226
7.009613 1.1043719 5.0702219
8.0578381e-08 1.1617726 5.0709581
0.23999985 1.2102307 5.0763984
3.5999999 1.2237161 5.0714231
7.009613 1.2819273 5.0705123
7.2496128 1.5561558 5.0785508
3.7200003 1.6651564 5.075284
3.5999999 1.6955606 5.0717902
1.2613326e-07 1.8185792 5.0711112
0.23999989 1.8254122 5.070015
3.6000001 1.8234047 5.0731344
3.6000001 2.0753794 5.0708804
3.7200003 2.1380787 5.0726624
1.5078695e-07 2.1740339 5.07583
0.23999992 2.2338593 5.0784745
3.6000001 2.2797177 5.079391
3.5999999 2.3475814 5.0740414
3.7200003 2.3809896 5.0742664
0.23999992 2.4140925 5.0715327
7.2496128 2.499042 5.0746417
3.72 2.5276704 5.0784531
7.2496128 2.6336751 5.0717473
3.5999999 2.7290304 5.077775
7.009613 2.745059 5.070159
3.5999999 2.8034325 5.0770283
3.5999999 2.9171019 5.0741792
2.0773395e-07 2.9950914 5.0720339
2.0862845e-07 3.0079882 5.0773244
0.23999998 3.0115976 5.0726137
2.1107374e-07 3.0432444 5.0718212
3.72 3.087153 5.0756984
3.6000001 3.102205 5.0792322
0.23999999 3.1169105 5.0710897
7.009613 3.1257758 5.0767951
2.2492759e-07 3.2429881 5.0700717
7.2496128 3.3747928 5.0761132
0.24000001 3.4366033 5.0717263
3.7200005 3.4738038 5.0745325
7.2496128 3.4792392 5.0707235
2.4293007e-07 3.5025463 5.0705528
0.24000004 3.5567932 5.0734353
2.4976163e-07 3.601043 5.0748935
3.72 3.7451055 5.0782337
7.2496128 3.7432642 5.0728211
3.6000001 3.7613375 5.0717492
2.6958773e-07 3.8868945 5.0716958
3.6000001 4.1048346 5.0785055
3.72 4.2311287 5.0721407
3.7200003 4.3397799 5.0781646
7.009613 4.4193029 5.0717058
3.1368435e-07 4.522676 5.0781651
3.6000001 4.5879421 5.0708637
7.009613 4.6191049 5.079865
7.0096135 4.6912613 5.0754395
7.2496128 4.7359285 5.0712471
3.7200003 4.8280816 5.0738444
7.009613 4.8581934 5.0766535
3.7200003 4.9404397 5.0747614
7.009613 5.0866923 5.0701694
3.6000001 5.0957956 5.0771098
7.009613 5.1740203 5.0724401
3.6490025e-07 5.2611027 5.0708833
7.0096135 5.266943 5.0701137
3.6000001 5.2977905 5.0783796
3.7200003 5.3033047 5.0780754
3.6000004 5.6248264 5.0784903
7.0096135 5.6455336 5.0717921
3.9323342e-07 5.6696081 5.0734024
0.24000017 5.6898432 5.0759873
3.6000001 5.6886163 5.0774212
4.0355312e-07 5.818397 5.0795298
3.7200003 5.8604293 5.0721159
7.2496133 5.9104714 5.0755739
7.009613 5.9968228 5.0737591
3.6000004 6.0191803 5.073945
7.2496133 6.0318708 5.0706239
0.24000019 6.0911555 5.0772014
0.2400002 6.2239733 5.075141
3.6000004 6.2927017 5.0756683
0.2400002 6.3915539 5.0707178
7.2496133 6.4067059 5.0741291
3.7200003 6.478394 5.0766916
2.2600002 6.510047 5.0757041
0.24000022 6.5399542 5.0738358
7.009613 6.6137276 5.0770884
3.6000001 6.7022867 5.0704298
0.24000023 6.7264009 5.0784087
3.7200003 6.7485723 5.0759373
3.7200003 6.8051963 5.0774765
4.7683716e-07 6.8977318 5.0731554
3.7200003 6.896244 5.071466
7.2496138 6.8966641 5.0743141
4.7683716e-07 7.0571384 5.0765572
3.7200003 7.21984 5.0712862
7.2496133 7.2286029 5.0761003
3.6000001 7.2366419 5.0764389
3.7200003 7.3168821 5.0799661
3.6000001 7.4080634 5.0759211
3.7200003 7.4408984 5.0706911
3.6000004 7.5447779 5.0705371
3.7200003 7.6262913 5.0711718
0.24000023 7.6341882 5.0720387
7.2496133 7.6784649 5.0729775
0.24000025 7.6951494 5.0720072
3.7200003 8.0318451 5.0740914
3.6000001 8.1571569 5.0725913
7.009614 8.1785593 5.0746055
0.24000026 8.2785568 5.0759354
7.2496138 8.3410339 5.0708413
2.5000005 8.3504162 5.0785637
3.6000004 8.371151 5.0767817
3.6000004 8.3924894 5.0768261
0.24000029 8.4175634 5.0754642
2.3850002 8.4757576 5.0796919
4.7683716e-07 8.5051918 5.0722909
2.5000005 8.6293125 5.0722799
4.7683716e-07 8.6929111 5.0760074
7.2496138 8.7182055 5.0707603
3.6000004 8.7290068 5.0764475
3.7200003 8.7265253 5.0771675
0.24000032 8.7852764 5.0733881
7.2496128 8.7890816 5.0732274
7.2496128 8.8333664 5.0711813
0.24000034 8.9300175 5.078599
4.7683716e-07 8.9608097 5.0703402
3.6000004 9.0467367 5.079143
2.3850005 9.271739 5.0758138
2.5000005 9.2802067 5.0767503
2.3850005 9.3027058 5.0730438
3.6000001 9.3598995 5.073844
2.5000005 9.4551439 5.0758557
7.1774788 9.4499998 5.0732756
7.7314949 9.4500008 5.0707874
7.8135848 9.4499998 5.0784225
0.24000035 9.4922447 5.078105
2.3850005 9.5418663 5.0729842
4.7683716e-07 9.6446877 5.0722141
0.3552283 9.6400003 5.071559
1.043013 9.6400003 5.0727768
1.2814827 9.6400003 5.0751057
1.3337468 9.6400003 5.0716891
1.8635914 9.6400003 5.073473
