# .PCD v0.7 - Point Cloud Data file format
VERSION 0.7
FIELDS x y z
SIZE 4 4 4
TYPE F F F
COUNT 1 1 1
WIDTH 1572
HEIGHT 1
VIEWPOINT 0 0 0 1 0 0 0
POINTS 1572
DATA ascii
0.88585556 8.3211384 1.5888184
0.90508008 8.3211384 1.5804448
0.98769736 8.3211384 1.5891669
1.546482 8.3211384 1.5840749
2.1976924 8.3211384 1.5893923
2.2692316 8.3211384 1.5888697
3.6030378 8.3271818 1.5833246
2.3880377 8.3792238 1.5873456
0.24303818 8.4129028 1.5840127
0.52049935 8.4361401 1.5837687
0.72283018 8.4361401 1.5875894
2.2310667 8.4361401 1.5855439
0.24303818 8.4567852 1.5885111
3.7230377 8.4981241 1.5872636
3.7230377 8.5517216 1.5856085
2.3880377 8.6198225 1.5860167
2.3880377 8.6271887 1.5893874
2.3880377 8.671072 1.5890009
0.72996366 8.6861401 1.5813494
0.76304549 8.6861401 1.5860176
2.1117215 8.6861401 1.5828797
2.3880377 8.7052269 1.5831289
2.3880377 8.7202024 1.587095
0.30012086 8.806139 1.588817
0.49482733 8.806139 1.5874957
0.904221 8.806139 1.5854039
1.8432449 8.806139 1.5828893
2.0691741 8.806139 1.5867486
2.3658905 8.806139 1.5835028
0.24303818 8.8684425 1.5831029
2.4356699 8.8861389 1.5802865
3.7230377 9.0204268 1.5870473
6.7130375 9.0581503 1.5805656
6.7130375 9.2143068 1.5801291
3.7230377 9.2661295 1.5886414
6.7130375 9.3355274 1.5863218
6.7130375 9.5215607 1.5864865
3.7230377 9.6073742 1.5816262
6.7569513 9.7161388 1.588818
6.8981361 9.7161388 1.5848546
7.1510601 9.7161388 1.5838951
7.9678545 9.7161388 1.5894499
0.0030384064 9.7207766 1.5810339
3.8089466 9.7761383 1.5826023
3.942137 9.7761383 1.5876406
4.1379967 9.7761383 1.5880949
4.3410168 9.7761383 1.5818683
4.3685541 9.7761383 1.5860658
4.5862589 9.7761383 1.583272
4.6770649 9.7761383 1.5870233
4.7396126 9.7761383 1.5818788
5.0284357 9.7761383 1.5812089
5.4390707 9.7761383 1.585806
5.4401994 9.7761383 1.5844327
5.4551859 9.7761383 1.5886565
5.4675956 9.7761383 1.5840658
5.7416143 9.7761383 1.584481
5.800993 9.7761383 1.582067
5.8688021 9.7761383 1.5823047
6.0711827 9.7761383 1.5829563
6.3803463 9.7761383 1.5886028
3.6030378 9.8135386 1.5898709
3.7230377 9.8853655 1.5869811
3.7677226 9.8961391 1.5810504
4.0370936 9.8961391 1.5852629
4.07371 9.8961391 1.5876477
4.583365 9.8961391 1.5836557
5.137219 9.8961391 1.5870054
5.6946354 9.8961391 1.5836842
5.9440098 9.8961391 1.5804493
6.0692978 9.8961391 1.5862439
6.3619628 9.8961391 1.5858045
0.72998369 9.9061394 1.5809283
1.2124512 9.9061394 1.589012
1.6604172 9.9061394 1.5810462
1.7004335 9.9061394 1.5851763
2.3935237 9.9061394 1.5808448
2.5030384 9.9060392 1.5881883
3.5117476 9.9061394 1.5887282
7.3224673 9.9561386 1.5887766
8.0996227 10.00505 1.5836883
3.6030378 10.014481 1.5854907
3.7230375 10.10692 1.5833453
0.24303818 10.133346 1.5855319
0.85050458 10.146139 1.5851986
1.2411529 10.146139 1.5879763
1.4982723 10.146139 1.5877076
1.7109451 10.146139 1.5888124
2.2645559 10.146139 1.5879468
2.4992263 10.146139 1.5809511
0.24303818 10.162178 1.5850456
0.24303818 10.4764 1.5846992
8.0716629 10.496435 1.5890982
8.0673475 10.572285 1.5898206
7.8341808 10.630863 1.5864226
0.0030384064 10.640215 1.5854709
0.0030384064 10.656845 1.5819306
0.24303818 10.669683 1.5870284
0.0030384064 10.854881 1.5852194
0.24303818 11.110171 1.5887399
0.24303818 11.516287 1.5899866
0.24303818 11.663117 1.5870285
3.6889253 11.726139 1.583256
0.0030384064 11.837795 1.5861293
3.7230377 12.165941 1.5801702
3.6030378 12.173606 1.5892453
7.7775497 12.219531 1.5834128
0.0030384064 12.311272 1.5887653
3.7260263 12.326139 1.5848669
4.3804874 12.326139 1.5839124
5.8792963 12.326139 1.5895607
6.1048818 12.326139 1.5846692
6.9858742 12.326139 1.5891523
7.4281697 12.326139 1.5820147
7.963974 12.389015 1.5842429
3.7230377 12.410873 1.5881523
3.8696527 12.446138 1.5867527
4.1586866 12.446138 1.5861712
4.5302191 12.446138 1.587292
4.959446 12.446138 1.5881065
5.2527313 12.446138 1.5802996
5.823236 12.446138 1.5843669
6.0461407 12.446138 1.5811898
7.5235348 12.446138 1.587206
7.5701718 12.446138 1.5875578
7.7185497 12.477551 1.5810117
3.6030378 12.566273 1.5864674
3.6030378 12.673784 1.5809802
3.7230377 12.675699 1.5845503
0.0030384064 12.795827 1.5893909
0.0030384064 12.83723 1.5894399
3.7230377 12.880472 1.5809994
0.0030384064 12.943224 1.584573
3.7230377 13.065119 1.5801768
0.24303818 13.084901 1.5863848
7.9225707 13.116672 1.5884342
7.6784658 13.182001 1.589601
7.6737003 13.265751 1.5890244
0.24303818 13.37435 1.5844576
0.24303818 13.422273 1.5812107
0.24303818 13.56587 1.5899695
7.6469479 13.735907 1.5899084
7.8779168 13.901451 1.5867078
0.0030384064 13.938961 1.5884551
7.8679361 14.07686 1.5885477
0.0030384064 14.12688 1.5800644
0.24303818 14.215242 1.5825826
0.0030384064 14.278451 1.5812682
7.8563757 14.280038 1.5849708
0.24303818 14.308756 1.5897962
7.6105261 14.376011 1.5867023
7.8470211 14.444446 1.5874544
0.2803539 14.466141 1.5876334
0.40782419 14.466141 1.5853339
0.44198689 14.466141 1.5830505
4.0108809 14.466141 1.5872667
5.2601595 14.466141 1.5861797
6.1749849 14.466141 1.5814358
6.3138266 14.466141 1.5813894
6.367178 14.466141 1.5861571
6.8643365 14.466141 1.5870824
0.44303799 14.528958 1.5814381
0.0030384064 14.531048 1.5800496
5.1480389 14.549736 1.5859963
7.5956521 14.637419 1.5825231
3.4730377 14.655351 1.5888314
3.473038 14.673399 1.583851
0.23766465 14.706139 1.5897601
3.4849546 14.706139 1.5852798
3.6824489 14.706139 1.5801332
3.6924911 14.706139 1.5854136
3.8656554 14.706139 1.5898039
3.9578094 14.706139 1.5860533
4.3134937 14.706139 1.5891492
4.3504944 14.706139 1.5877451
5.2246709 14.706139 1.5874839
6.4725142 14.706139 1.5869895
7.2583671 14.706139 1.5864799
0.59224671 0.0061397552 1.5931517
0.65296447 0.0061397552 1.591506
2.4724932 0.0061397552 1.5965116
2.4958916 0.0061397552 1.5979149
2.519309 0.0061397552 1.5980823
2.648818 0.0061397552 1.5980341
2.7028913 0.0061397552 1.5927759
3.2596865 0.0061397552 1.5974786
3.4676409 0.0061397552 1.5944028
3.4953785 0.0061397552 1.5935302
3.5313902 0.0061397552 1.5956106
3.6806588 0.0061397552 1.5979469
3.9698663 0.0061397552 1.5923322
4.0452185 0.0061397552 1.5928527
4.4026799 0.0061397552 1.5939932
5.0316272 0.0061397552 1.595265
6.8684616 0.0061397552 1.5902122
7.5126514 0.050333276 1.5966761
0.69721347 0.26613998 1.5900462
0.8662191 0.26613998 1.5909746
2.2232451 0.26613998 1.5902129
2.9992862 0.26613998 1.5946374
3.2322659 0.26613998 1.5993954
3.799068 0.26613998 1.5932748
3.8464174 0.26613998 1.5900419
4.0119152 0.26613998 1.5917057
5.3096957 0.26613998 1.5999855
5.3677602 0.26613998 1.5901517
5.4436998 0.26613998 1.5922441
5.564826 0.26613998 1.5993384
5.6052198 0.26613998 1.5957401
1.1430378 0.36408561 1.5901028
6.7326508 0.40062052 1.5979843
2.1730375 0.44033962 1.5902971
0.7546674 0.50613976 1.5925149
2.9838104 0.50613976 1.5943167
2.9975657 0.50613976 1.5959893
3.3649168 0.50613976 1.5951312
4.4077268 0.50613976 1.5900031
4.6976709 0.50613976 1.5962193
0.0030384064 0.54289484 1.5982108
3.7230377 0.54581696 1.5910593
6.7130375 0.60298193 1.5935498
6.7130375 0.7557373 1.5973122
3.7230377 0.77087748 1.5990454
3.7230377 0.86976862 1.5957683
6.9530373 0.86418986 1.5924329
6.7130375 0.89145398 1.5932579
3.6030378 0.99611598 1.5913569
3.6030378 1.1307412 1.5944186
6.7130375 1.1667515 1.59951
0.0030384064 2.2468886 1.5940387
3.6030378 2.2999694 1.5956942
0.0030384064 2.3047388 1.5981029
3.6030378 2.5977185 1.5981518
3.6030378 3.0672278 1.5963514
0.24303818 3.2199593 1.5998012
3.6030378 3.2177954 1.5953941
0.0030384064 3.474689 1.5935538
0.43809092 3.4961395 1.5937527
0.70906079 3.4961395 1.5929191
1.6368009 3.4961395 1.5939417
1.7824079 3.4961395 1.5931381
1.967479 3.4961395 1.5997483
6.9530373 3.4941139 1.5974905
6.9530373 3.643055 1.5998929
0.24303818 3.6661921 1.5952173
3.7230377 3.6819141 1.5996958
0.0030384064 3.7384772 1.5935284
0.62258899 3.7361393 1.5991873
0.77567756 3.7361393 1.5900291
1.6405027 3.7361393 1.5931426
1.8117692 3.7361393 1.5940988
2.0445995 3.7361393 1.5959096
2.2519946 3.7361393 1.5912755
6.9530373 3.7924695 1.5921826
6.7130375 3.8538601 1.5909535
0.24303818 3.87378 1.5901749
6.7130375 3.9787416 1.5903478
0.0030384064 4.0848498 1.5939505
0.0030384064 4.2049713 1.5918407
6.9530373 4.3563948 1.5992984
0.24303818 4.5463152 1.5972968
6.7130375 4.71276 1.5983123
6.9530373 4.7664785 1.5986906
3.7230377 4.8026938 1.5921175
0.0030384064 4.8863254 1.5999273
3.7230377 4.9828577 1.5962057
0.24303818 5.0539799 1.5933194
0.24303818 5.154943 1.5903054
3.7230377 5.3213606 1.5958664
6.9530373 5.3562222 1.5906267
6.1361237 5.4961395 1.5989922
3.6030378 5.5294981 1.5970467
0.24303818 5.5410242 1.5946152
3.7230377 5.5845695 1.5974928
4.1825504 5.6161385 1.5983444
4.2387767 5.6161385 1.5955215
4.318572 5.6161385 1.5952044
4.4989886 5.6161385 1.5995117
4.7532277 5.6161385 1.5958846
4.9538746 5.6161385 1.5922954
5.4419823 5.6161385 1.5968416
5.8089304 5.6161385 1.5908543
5.8678823 5.6161385 1.5989164
6.2031946 5.6161385 1.5931406
6.2983146 5.6161385 1.5966055
6.3358884 5.6161385 1.5920569
6.3630672 5.6161385 1.5958748
3.7230377 5.7006369 1.5990316
3.7230377 5.7184219 1.5941828
3.6030378 5.9234772 1.5984671
3.6030378 5.9558296 1.5924575
3.7230377 5.9699903 1.5966086
0.24303818 5.97402 1.5939862
0.0030384064 6.0936775 1.5914891
6.9530373 6.1316214 1.5927784
3.6030378 6.1845098 1.5923456
0.0030384064 6.2250657 1.5901976
2.5030384 6.2271094 1.5944487
3.6620653 6.2361393 1.5977545
6.9530373 6.3269114 1.593847
6.9530373 6.3376064 1.5950062
0.24303818 6.3414869 1.594872
2.2630377 6.5209303 1.5971087
2.5030384 6.6173029 1.5988973
0.24303818 6.6447344 1.5968672
2.2630377 6.6481714 1.5937452
2.5030384 6.6593518 1.5981318
6.7130375 6.6994801 1.5992724
2.5030384 6.7649379 1.5920421
6.8178158 6.7761383 1.591863
2.2630377 6.795949 1.5976654
0.24303818 6.8191948 1.5904597
0.063603267 7.14114 1.5954251
0.072408915 7.14114 1.5937116
3.7230377 7.3645086 1.5955856
3.6030378 7.3803697 1.5940075
3.6030378 7.4257264 1.5954887
3.7230377 7.7565908 1.5988295
3.7230377 8.0677795 1.5954401
0.069851153 8.1711388 1.5979524
0.0030384064 8.1931114 1.5990156
0.0030384064 8.2580299 1.5978914
3.6030378 8.2997503 1.59706
1.2140427 8.3211384 1.5906528
2.1558156 8.3211384 1.59988
2.4815209 8.3211384 1.5947907
0.6800577 8.4361401 1.5927769
0.81870174 8.4361401 1.5910753
0.86964393 8.4361401 1.5904796
1.0969118 8.4361401 1.5989527
1.1491719 8.4361401 1.5956721
1.5188192 8.4361401 1.5976524
2.0705481 8.4361401 1.5955224
2.1947973 8.4361401 1.5915922
2.3129246 8.4361401 1.5941589
2.3319829 8.4361401 1.5914645
0.24303818 8.5597563 1.5944066
2.5030384 8.5849991 1.5947769
0.35612053 8.6861401 1.5956017
0.4455027 8.6861401 1.5985568
0.52077532 8.6861401 1.5905091
0.94154793 8.6861401 1.5959847
1.0570636 8.6861401 1.5958123
1.5040452 8.6861401 1.5933411
1.7114174 8.6861401 1.5907586
2.2374337 8.6861401 1.5957547
0.24303818 8.7237329 1.5902352
0.24303818 8.7586374 1.5992042
3.7230377 8.7544107 1.5940425
0.34178743 8.806139 1.5935497
0.41428614 8.806139 1.5965612
0.59352535 8.806139 1.5957576
1.5782681 8.806139 1.5900124
1.9036268 8.806139 1.5983435
2.2232859 8.806139 1.5983533
2.2698441 8.806139 1.5961835
2.5030384 8.8300714 1.5917011
0.24303818 8.888422 1.5913918
6.7130375 8.9109564 1.599346
0.0030384064 8.9359217 1.5951774
0.0030384064 9.0334015 1.5928349
6.7130375 9.040432 1.5973402
0.24303818 9.1240702 1.5924584
3.6030378 9.2668705 1.5983074
6.9530373 9.2804413 1.5929935
3.6030378 9.3239326 1.5922844
0.0030384064 9.6074677 1.5964994
6.9530373 9.6143093 1.5984569
2.3880377 9.6781807 1.5954698
6.9530373 9.6984644 1.5932695
2.5030384 9.7139149 1.5972964
6.7330146 9.7161388 1.5913639
7.0068846 9.7161388 1.5909853
2.3880377 9.7694855 1.5930303
4.257947 9.7761383 1.5937279
4.6139259 9.7761383 1.5973319
4.7269182 9.7761383 1.5930665
5.4520392 9.7761383 1.5964732
5.4683495 9.7761383 1.5991365
5.5465183 9.7761383 1.5994959
5.9440961 9.7761383 1.5968106
6.0648813 9.7761383 1.5974672
6.527411 9.7761383 1.5997524
6.5376177 9.7761383 1.5964248
2.3880377 9.7900629 1.5959675
0.24303818 9.817359 1.594269
0.0030384064 9.859951 1.5958123
2.3880377 9.8795967 1.599057
3.7732048 9.8961391 1.5950847
3.8925383 9.8961391 1.5906426
4.0008159 9.8961391 1.5954692
4.0527511 9.8961391 1.5986503
4.9003062 9.8961391 1.5997628
5.2912378 9.8961391 1.5990762
5.3407278 9.8961391 1.595837
5.6903019 9.8961391 1.5915115
5.7149868 9.8961391 1.5913311
5.9633794 9.8961391 1.5938942
6.152442 9.8961391 1.590956
6.188416 9.8961391 1.5919248
6.3034945 9.8961391 1.5925505
6.3769197 9.8961391 1.5911422
6.4568448 9.8961391 1.5960637
0.75596172 9.9061394 1.5958152
1.7549189 9.9061394 1.5939823
2.519275 9.9061394 1.5968554
7.6294641 9.9561386 1.5971978
3.5030384 10.037142 1.5984302
8.0980787 10.032178 1.5918174
0.24303818 10.047523 1.5904235
0.24303818 10.053383 1.593734
0.24303818 10.1025 1.5965014
0.44534847 10.146139 1.5996758
0.70049328 10.146139 1.5961823
0.81366545 10.146139 1.5942824
0.90572506 10.146139 1.5988986
1.2902169 10.146139 1.5933708
1.6183798 10.146139 1.5978725
1.8461204 10.146139 1.5968705
1.9582984 10.146139 1.5937185
2.0675259 10.146139 1.5967511
3.7230377 10.154266 1.595984
3.7230377 10.243708 1.5974487
3.7230377 10.275455 1.5948217
7.9740744 10.638823 1.5982485
8.0453072 10.642876 1.5936713
0.24303818 10.668383 1.5955855
0.24303818 10.947033 1.592335
0.24303818 11.04373 1.5947584
0.0030384064 11.146034 1.59913
0.0030384064 11.260473 1.5976279
0.24303818 11.431009 1.5947421
0.24303818 11.54394 1.5934793
0.0030384064 11.579377 1.5987276
0.0030384064 11.719989 1.5978572
7.7538357 11.857391 1.599085
7.751605 11.896599 1.5968752
0.0030384064 12.109437 1.5934703
0.24303818 12.103842 1.5913687
7.7373681 12.146815 1.5909691
7.7694201 12.219069 1.5908911
7.7817602 12.21977 1.5926113
7.8800278 12.280069 1.5921385
3.7934608 12.326139 1.5946008
4.2347431 12.326139 1.5990492
4.3735075 12.326139 1.5983784
4.8391342 12.326139 1.5989811
5.0640135 12.326139 1.5923765
5.8164415 12.326139 1.5924304
6.6844816 12.326139 1.5942755
6.8428717 12.326139 1.5907055
6.9316216 12.326139 1.5991445
7.0852709 12.326139 1.5988725
3.9483004 12.446138 1.5951544
4.6544056 12.446138 1.5911387
5.6197834 12.446138 1.5927372
5.7934494 12.446138 1.5983241
6.2592463 12.446138 1.5914943
7.0851173 12.446137 1.5931106
0.0030384064 12.507707 1.5904517
7.7153854 12.533152 1.5957425
7.7121239 12.590477 1.593487
7.71066 12.616208 1.5939964
7.7047348 12.72033 1.5956587
0.0030384064 12.784341 1.5903347
7.9413633 12.786391 1.5999269
3.7230377 12.87513 1.5975769
7.6907468 12.966169 1.5969999
7.6815038 13.128613 1.5906937
7.9146271 13.256277 1.5946642
7.6735878 13.267723 1.5933013
7.6686726 13.354113 1.5958986
0.24303818 13.601932 1.5954649
7.8945484 13.609154 1.5942866
0.0030384064 13.709886 1.5993683
0.24303818 13.726696 1.5959499
7.6285577 14.05911 1.5988787
0.0030384064 14.088768 1.5948544
7.8659601 14.111588 1.5981261
0.0030384064 14.274716 1.5921383
0.0030384064 14.357914 1.5964794
0.0030384064 14.383986 1.5995424
7.6098938 14.387112 1.5991529
0.3361007 14.466141 1.59623
4.2062755 14.466141 1.5999895
5.6049585 14.466141 1.5944529
7.3160529 14.466141 1.5924383
7.5853305 14.466141 1.5914782
7.5982413 14.591903 1.5991174
0.0030384064 14.607204 1.5902039
0.0030384064 14.641828 1.5962678
5.1480389 14.696253 1.598117
3.9474902 14.706139 1.5994992
4.2766151 14.706139 1.5909915
4.3827276 14.706139 1.5994201
5.1603351 14.706139 1.5907813
5.8031759 14.706139 1.5951246
7.2683806 14.706139 1.5974684
7.6551723 14.706139 1.5958639
0.21114998 0.0061397552 1.6060059
0.32178909 0.0061397552 1.6090015
0.49710825 0.0061397552 1.60852
0.68613297 0.0061397552 1.6039618
0.96683943 0.0061397552 1.600286
0.9708944 0.0061397552 1.6069528
1.0542582 0.0061397552 1.6063881
1.1300385 0.0061397552 1.6000421
3.1380763 0.0061397552 1.6038493
3.3406484 0.0061397552 1.6077405
4.0932484 0.0061397552 1.6077665
4.3852229 0.0061397552 1.6030281
4.8277278 0.0061397552 1.6028126
5.4821258 0.0061397552 1.6082624
5.538548 0.0061397552 1.6016294
7.0287933 0.0061397552 1.6061282
7.0419931 0.0061397552 1.6022739
7.2591162 0.0061397552 1.6032999
7.2607265 0.0061397552 1.6089679
7.305068 0.0061397552 1.600454
7.4157724 0.0061397552 1.6044208
7.4497223 0.0061397552 1.6074383
7.5126514 0.1676002 1.6018778
0.047380686 0.26613998 1.6092882
0.26653844 0.26613998 1.6046244
0.46354118 0.26613998 1.6058434
1.029713 0.26613998 1.6003044
1.0576584 0.26613998 1.6011242
1.0613108 0.26613998 1.6084021
2.6083312 0.26613998 1.6046994
2.6371868 0.26613998 1.6026633
2.8669465 0.26613998 1.6069496
3.4374738 0.26613998 1.6087122
4.6899614 0.26613998 1.6054273
4.7004099 0.26613998 1.6070707
4.8186922 0.26613998 1.6074667
4.8780103 0.26613998 1.6090803
4.8827124 0.26613998 1.6001643
4.9609199 0.26613998 1.6066771
5.0707684 0.26613998 1.6031405
6.864316 0.26613998 1.6009918
7.0468102 0.26613998 1.6061333
7.1250567 0.26613998 1.6029322
7.5005183 0.26613998 1.6011682
1.1430378 0.27823362 1.6063021
6.9530373 0.30066413 1.6045257
2.1730375 0.3100189 1.6063406
0.24303818 0.35249925 1.6069047
2.1730375 0.47935963 1.6089071
0.24303818 0.50894892 1.6058389
0.67504513 0.50613976 1.6096261
3.6070447 0.50613976 1.6028049
3.9004378 0.50613976 1.6081043
4.1445403 0.50613976 1.6081536
5.1694746 0.50613976 1.6030107
5.2007961 0.50613976 1.609675
6.7130375 0.58161449 1.6054629
0.0030384064 0.62829542 1.6055574
0.24303818 0.69689947 1.6059767
6.7130375 0.7151342 1.609755
3.6030378 0.78180254 1.6061786
6.7130375 0.85431325 1.6032823
0.0030384064 0.90407538 1.6032017
6.7130375 0.95359707 1.6069859
3.7230377 1.0897264 1.6067047
0.0030384064 1.1399413 1.6093878
6.9530373 1.1393763 1.6057755
6.9530373 1.1926426 1.6016742
6.9530373 1.2098407 1.6013341
0.24303818 1.3056506 1.6098566
0.24303818 1.461786 1.6012315
0.24303818 1.8794944 1.6028745
0.0030384064 1.9452969 1.6041011
0.0030384064 2.0040851 1.6086431
0.24303818 2.2850819 1.6081457
3.6030378 2.2847476 1.6099627
0.0030384064 2.4094474 1.6011362
0.24303818 2.4553106 1.6007764
3.6030378 2.6342015 1.607347
0.0030384064 2.6638634 1.6043029
0.24303818 2.7708566 1.6015484
0.24303818 2.9226458 1.604362
0.24303818 3.0132499 1.6080631
3.7230377 3.0940061 1.6077514
0.24303818 3.1357048 1.6054889
3.6030378 3.1405208 1.6021169
0.24303818 3.353338 1.6075571
3.7230377 3.4642444 1.603204
6.7130375 3.489495 1.6063646
0.72487235 3.4961395 1.6006327
0.73977101 3.4961395 1.6047704
0.78992641 3.4961395 1.6031027
1.6132138 3.4961395 1.6053338
1.6472292 3.4961395 1.6040342
2.2236891 3.4961395 1.6094126
6.9530373 3.5254557 1.6013395
3.6030378 3.5600417 1.6061254
6.9530373 3.593785 1.6095866
3.7230377 3.605443 1.6043354
3.7230377 3.6992736 1.6004796
0.28662324 3.7361393 1.6016408
0.48025113 3.7361393 1.6044868
2.0184054 3.7361393 1.600484
2.0296583 3.7361393 1.6037445
6.7130375 3.78813 1.6051826
0.0030384064 3.9500525 1.6031058
6.7130375 4.0116897 1.6021559
0.24303818 4.0737543 1.6009793
6.9530373 4.3354926 1.6039386
6.7130375 4.3824034 1.6012747
6.9530373 4.5083189 1.6019983
6.9530373 4.5672188 1.6079519
6.9530373 4.6369615 1.6080499
0.0030384064 4.6400485 1.6023198
3.6344609 4.7161388 1.6006509
3.6030378 4.785841 1.6068821
0.24303818 4.8207808 1.6085279
6.7130375 4.9897399 1.6016273
3.7230377 5.1487856 1.6029069
0.24303818 5.2594128 1.608806
0.24303818 5.2947273 1.6032598
3.6030378 5.2957945 1.6072838
3.8053157 5.4961395 1.6063318
3.9018192 5.4961395 1.6063619
4.3939204 5.4961395 1.6015011
4.624651 5.4961395 1.6026933
6.2141871 5.4961395 1.6005603
6.289053 5.4961395 1.6094525
6.7130375 5.529695 1.6016573
3.7230377 5.5342865 1.6007159
6.9530373 5.5464087 1.6090238
0.0030384064 5.6108694 1.6048143
0.24303818 5.6194038 1.6002848
3.9316068 5.6161385 1.6085042
4.0569506 5.6161385 1.6050102
4.2227521 5.6161385 1.6003206
4.7902212 5.6161385 1.6084256
5.2334032 5.6161385 1.6069336
5.3550401 5.6161385 1.6046476
5.5650697 5.6161385 1.6095757
6.0897851 5.6161385 1.6081896
0.24303818 5.6441412 1.6074737
6.9530373 5.6511526 1.6078149
3.7230377 5.7393012 1.6038394
0.0030384064 5.7607217 1.6012063
0.24303818 5.8277068 1.6070284
6.9530373 5.8355503 1.6061288
3.7230377 6.0379877 1.6008768
2.2630377 6.3074455 1.6005514
0.0030384064 6.3871651 1.6076744
6.9530373 6.4699197 1.6009303
6.9530373 6.4894753 1.6068914
0.24303818 6.9307337 1.6000378
0.24303818 6.980092 1.6068128
3.6030376 7.234746 1.6096811
3.7230377 7.2522526 1.6063205
3.6030378 7.7228355 1.6060495
3.6030378 7.789052 1.6044341
3.7230377 8.1194868 1.6044183
0.20223141 8.1711388 1.6095845
3.6030378 8.23736 1.6089013
3.7230377 8.2691174 1.6063541
0.2625159 8.3211384 1.6010576
0.42665502 8.3211384 1.6056869
2.3836761 8.3211384 1.6015149
2.4637575 8.3211384 1.6002873
0.24303818 8.3415565 1.6066045
1.3138 8.4361401 1.6001614
2.168828 8.4361401 1.6009231
3.7230377 8.5853767 1.6048973
0.96711814 8.6861401 1.6096308
1.367546 8.6861401 1.6061293
2.2205031 8.6861401 1.6052181
3.6030378 8.7624035 1.6084414
2.3880377 8.7819614 1.6003803
1.1524239 8.806139 1.608675
1.2234462 8.806139 1.607764
1.5764736 8.806139 1.6031432
1.5933199 8.806139 1.6028873
1.6494901 8.806139 1.6024053
1.9441694 8.806139 1.6042157
6.7130375 8.8131275 1.608807
2.5030384 8.8375015 1.6029961
3.7230377 8.8343105 1.6095966
0.0030384064 8.8692474 1.6026454
0.24303818 8.9214058 1.6018422
3.6030378 8.979393 1.6049597
6.9530373 9.000742 1.6071297
6.7130375 9.0443039 1.6047347
3.7230377 9.1463203 1.6054702
3.6030378 9.2181301 1.6036562
3.6030378 9.2898312 1.6086539
6.9530373 9.2878475 1.6086409
6.9530373 9.470645 1.6091595
3.7230377 9.4879522 1.6065435
3.7230377 9.6282005 1.6097125
0.0030384064 9.6991434 1.6045213
7.1804914 9.7161388 1.6080079
2.3880377 9.7385798 1.6052572
2.5030384 9.7478256 1.6022439
8.1142778 9.7474642 1.6072441
3.7839563 9.7761383 1.6059327
3.871634 9.7761383 1.6072172
4.1540103 9.7761383 1.6029706
4.3408875 9.7761383 1.60551
4.4783401 9.7761383 1.609354
4.6962972 9.7761383 1.6008366
4.8050375 9.7761383 1.6049684
5.0454817 9.7761383 1.6079879
5.1117311 9.7761383 1.6078629
5.2438498 9.7761383 1.6043522
5.6576543 9.7761383 1.6070307
6.6322341 9.7761383 1.6060487
6.7130375 9.8204117 1.6086227
3.8698895 9.8961391 1.6093125
3.95755 9.8961391 1.6090261
4.1111159 9.8961391 1.6025524
4.1413236 9.8961391 1.6060938
4.6964102 9.8961391 1.6027811
5.2182002 9.8961391 1.6005465
5.227931 9.8961391 1.6054465
5.744278 9.8961391 1.601948
6.1100469 9.8961391 1.6051453
6.3279266 9.8961391 1.6053898
0.28564548 9.9061394 1.606106
0.73757279 9.9061394 1.6036149
1.5205926 9.9061394 1.6076835
1.895727 9.9061394 1.6078916
2.3532138 9.9061394 1.6017834
3.7230377 9.9008284 1.6099799
6.7130375 9.9162731 1.6055244
6.9473839 9.9561386 1.6090436
3.7230377 9.9665451 1.6047692
0.24303818 9.9836988 1.6010032
0.24303818 10.017365 1.6014893
0.24303816 10.030791 1.6071653
8.0973997 10.04411 1.6009243
0.0030384064 10.055628 1.6075593
7.8536587 10.103039 1.6037961
7.8532171 10.110793 1.6051892
0.55585659 10.146139 1.6000603
1.1753789 10.146139 1.60849
1.5780778 10.146139 1.6054761
1.696262 10.146139 1.6043012
2.1369541 10.146139 1.603364
3.5973039 10.146139 1.6031721
0.0030384064 10.158365 1.6079772
3.7230377 10.211731 1.6059924
0.24303818 10.293768 1.6001768
8.0826769 10.302866 1.6066794
0.0030384064 10.382978 1.6019744
0.24303818 10.383446 1.6008862
3.7230377 10.432964 1.609111
8.0722857 10.485492 1.6064994
3.6030378 10.546523 1.6045188
0.24303818 10.57959 1.6076912
0.0030384064 10.954292 1.6085054
0.24303818 11.521196 1.6058308
0.0030384064 11.606398 1.6021529
7.8733845 11.664761 1.6081487
3.6030378 11.740848 1.602046
7.7600288 11.748549 1.6000893
7.9967694 11.812648 1.6062324
0.0030384064 11.840979 1.6036634
0.24303818 11.870588 1.6056167
7.7506351 11.913643 1.6003335
3.7230377 11.971003 1.6083343
7.7340736 12.204713 1.606336
3.7230377 12.216757 1.6022235
3.6030378 12.244452 1.608371
7.8781023 12.31391 1.6027153
3.7512414 12.326139 1.6090033
4.0471854 12.326139 1.606741
4.2638302 12.326139 1.6006795
4.3970895 12.326139 1.6064081
4.5517759 12.326139 1.602192
4.9470196 12.326139 1.6064165
5.2589316 12.326139 1.6012182
5.412674 12.326139 1.6071212
5.5050812 12.326139 1.6053979
6.3225641 12.326139 1.6009601
6.3876033 12.326139 1.6033443
6.7283363 12.326139 1.6035304
7.8446116 12.37359 1.6068701
0.0030384064 12.381605 1.6097931
7.7211752 12.4314 1.6017263
3.8303666 12.446138 1.6060419
4.1933103 12.446138 1.6076645
4.3539314 12.446138 1.6017745
4.5353441 12.446138 1.6006492
4.8121185 12.446138 1.6017183
5.1851597 12.446138 1.6036719
5.505301 12.446138 1.6043581
6.2615581 12.446138 1.6069741
7.7152033 12.536356 1.6021202
0.0030384064 12.68803 1.6086383
3.7230377 12.7474 1.6052752
7.9430113 12.757433 1.6053226
0.24303818 12.847256 1.6011299
0.24303818 12.856772 1.6003693
3.7230377 12.926186 1.6059108
3.6565518 13.26614 1.6011896
7.6673017 13.378212 1.6017939
7.9009743 13.496223 1.6013227
7.6547327 13.599101 1.6004351
7.8950024 13.60118 1.6027597
0.24303818 13.852772 1.6073884
0.24303818 13.871444 1.6012495
7.876688 13.92305 1.602653
0.0030384064 14.190061 1.6025867
3.8926752 14.466141 1.6044248
4.0551271 14.466141 1.6079259
4.2994604 14.466141 1.600318
5.5392485 14.466141 1.6034825
6.8314977 14.466141 1.6017966
7.3553653 14.466141 1.6027828
7.5102839 14.466141 1.6092381
7.6033816 14.501562 1.6065954
0.0030384064 14.705215 1.6053454
3.7407002 14.706139 1.6089635
5.1577291 14.706139 1.6060934
5.2755346 14.706139 1.6089602
5.632678 14.706139 1.609962
6.401607 14.706139 1.6038803
6.4849415 14.706139 1.6007692
6.9899125 14.706139 1.6043431
7.2546997 14.706139 1.6097211
7.7596474 14.706139 1.6067498
0.28290188 0.0061397552 1.6166854
0.64385307 0.0061397552 1.6130812
0.81002599 0.0061397552 1.6185966
0.82933897 0.0061397552 1.6119039
3.8958275 0.0061397552 1.6166008
4.7520432 0.0061397552 1.6145869
5.0702753 0.0061397552 1.6181288
6.7609987 0.0061397552 1.619295
6.7831836 0.0061397552 1.6136116
7.0518799 0.0061397552 1.6159945
2.1580381 0.02274741 1.6127613
6.7176514 0.1262026 1.6161472
6.7176514 0.22444747 1.6112463
0.33903962 0.26613998 1.6167833
0.37486088 0.26613998 1.612949
0.44320494 0.26613998 1.6141049
0.6417681 0.26613998 1.6176182
0.86027348 0.26613998 1.6192468
1.1419792 0.26613998 1.616184
2.371418 0.26613998 1.613673
2.7103133 0.26613998 1.619155
2.8768747 0.26613998 1.618825
2.9646878 0.26613998 1.6131428
3.015902 0.26613998 1.6158509
3.1211705 0.26613998 1.6171445
3.1952333 0.26613998 1.6159303
3.4005129 0.26613998 1.6138611
3.4227123 0.26613998 1.6126236
3.5179014 0.26613998 1.6106311
3.5530849 0.26613998 1.6112419
3.6083584 0.26613998 1.6190648
3.9159236 0.26613998 1.6187646
4.301878 0.26613998 1.6174333
4.3322372 0.26613998 1.6175725
7.4857712 0.26613998 1.6175917
0.24303818 0.29124981 1.6114562
6.9530373 0.34658638 1.6176833
0.24303818 0.37657866 1.619567
6.7326508 0.39635968 1.6196508
0.24303818 0.44992143 1.6138858
0.79411817 0.50613976 1.6124429
0.88026023 0.50613976 1.619114
2.3926673 0.50613976 1.6130152
2.613656 0.50613976 1.613245
3.1492219 0.50613976 1.6145545
3.1510262 0.50613976 1.6135424
3.5502603 0.50613976 1.6176805
4.8293161 0.50613976 1.6124384
4.9182072 0.50613976 1.6199929
0.24303818 0.54211336 1.6159884
3.7230377 0.54063314 1.6167498
0.24303818 0.8877238 1.6120136
0.0030384064 0.94114757 1.6185409
0.24303818 1.0313684 1.6182094
6.9530373 1.0411303 1.614989
6.9530373 1.0831167 1.6167188
3.7230377 1.1197386 1.6170163
6.9530373 1.1183431 1.6169493
3.6030378 1.1502601 1.6156744
3.6030378 1.1742737 1.6162057
6.9530373 1.2566061 1.6125666
3.7230377 1.5080376 1.613641
3.6030378 2.0041227 1.6160609
3.7230377 2.1356862 1.6167364
3.7230377 2.1567767 1.6117733
3.7230377 2.2958322 1.6108189
3.7230377 2.3197012 1.6116381
3.6030378 2.3389337 1.6140404
0.24303818 2.5939059 1.6127405
0.24303818 2.699928 1.61975
0.0030384064 2.8156631 1.6164799
0.0030384064 2.8545048 1.6113423
0.0030384064 2.9880886 1.6182997
3.6030378 3.1133034 1.6138191
0.0030384064 3.312768 1.6194487
0.0030384064 3.4570787 1.6164119
1.2418619 3.4961395 1.6139781
0.0030384064 3.5860033 1.6176248
2.6830378 3.6339059 1.6185299
2.6830378 3.7004395 1.6199995
6.9530373 3.7162554 1.6187956
0.95217741 3.7361393 1.6104587
1.1328367 3.7361393 1.6143728
1.6260558 3.7361393 1.6122637
2.4861341 3.7361393 1.6162466
3.4879444 3.7361393 1.6160885
6.7130375 3.7489858 1.6190845
6.9530373 3.853189 1.6158981
6.9530373 3.9504972 1.6123129
6.7130375 3.9973347 1.6138613
0.0030384064 4.1070561 1.6145482
6.9530373 4.1008072 1.6133759
6.7130375 4.1494346 1.6161127
6.7130375 4.2140818 1.6113442
6.9530373 4.2148585 1.6174718
0.24303818 4.2479324 1.6171182
3.6836407 4.7161388 1.6103799
3.6919875 4.7161388 1.6193293
6.7130375 4.760869 1.6194798
0.0030384064 4.7886 1.613992
0.0030384064 4.8200145 1.6172478
0.24303818 5.1174479 1.6143571
3.7230377 5.1949286 1.615806
0.0030384064 5.320684 1.6162884
0.24303818 5.3477001 1.6150721
6.7130375 5.3545413 1.6155503
3.7230377 5.3680592 1.6142503
6.9530373 5.3908615 1.6192033
0.24303818 5.4324703 1.6191726
6.7130375 5.4460554 1.6132257
0.0030384064 5.4683723 1.6172973
3.6030378 5.4920874 1.6187792
3.9398305 5.4961395 1.6168071
4.1420155 5.4961395 1.6135406
4.4145918 5.4961395 1.6185302
4.4811935 5.4961395 1.6144193
4.6273651 5.4961395 1.6145141
5.3482423 5.4961395 1.619189
5.3790102 5.4961395 1.610414
6.9530373 5.5076976 1.6149284
0.0030384064 5.5887308 1.6196868
6.7130375 5.5875044 1.6149222
4.6112337 5.6161385 1.6160507
4.7179332 5.6161385 1.6136296
4.9462681 5.6161385 1.6169544
5.7751579 5.6161385 1.6194651
6.4774294 5.6161385 1.6179715
6.5483112 5.6161385 1.6145107
0.24303818 5.6305923 1.6163473
0.24303818 5.6491055 1.6106431
0.24303818 5.7087617 1.611272
3.6030378 5.7243237 1.6147187
6.7130375 5.7458425 1.617049
0.24303818 5.7936907 1.6181076
3.6030378 5.8303256 1.6117295
6.9530373 5.9474831 1.619108
6.7130375 6.0276523 1.6178293
6.9530373 6.1197195 1.6124048
6.7130375 6.2760067 1.6145451
2.2630377 6.3843565 1.6121199
6.9530373 6.3895249 1.6152905
6.9530373 6.4714093 1.6173332
0.24303818 6.4847975 1.6139001
6.7130375 6.4911208 1.6178459
6.9530373 6.4977841 1.616124
6.7130375 6.5633965 1.6102328
6.9530373 6.6185055 1.6197253
2.5030384 6.6234426 1.6193142
6.7130375 6.6629605 1.6121043
6.9329214 6.7761383 1.6115904
6.9503255 6.7761383 1.615871
2.5030384 6.7896633 1.6143565
0.0030384064 7.0541282 1.6189766
0.0030384064 7.1089458 1.6133097
0.18069343 7.14114 1.6166337
3.7230377 7.8611422 1.6110835
3.7230377 7.9202609 1.6180229
3.6030378 8.0809183 1.616315
3.6030378 8.1111698 1.6148014
0.20737256 8.1711388 1.6124434
0.24303818 8.2265844 1.6121575
0.0030384064 8.3018637 1.6168833
0.36173642 8.3211384 1.6137688
0.42021909 8.3211384 1.6186718
0.98013079 8.3211384 1.6113069
1.715742 8.3211384 1.6130168
2.0446396 8.3211384 1.6148199
2.3880377 8.3647795 1.6134471
1.3535796 8.4361401 1.6137087
1.8840488 8.4361401 1.6182058
0.39497614 8.6861401 1.613927
0.94401193 8.6861401 1.6165121
1.1123613 8.6861401 1.6144335
2.0622807 8.6861401 1.6196345
2.3312054 8.6861401 1.6161523
3.7230377 8.6911697 1.6129203
2.5030384 8.7423582 1.6123002
3.6030378 8.7855377 1.6110426
1.0023966 8.806139 1.6142052
1.4572184 8.806139 1.6125507
1.5402372 8.806139 1.617604
2.0853209 8.806139 1.6148978
2.2825177 8.806139 1.6182219
6.8410988 8.806139 1.616405
3.7230377 8.9187136 1.6124279
0.0030384064 9.0057926 1.6155949
6.7130375 9.117775 1.6150771
0.0030384064 9.1703711 1.6165853
0.0030384064 9.363699 1.6127851
3.7230377 9.3993788 1.6115738
0.0030384064 9.468647 1.6134787
3.6030378 9.4872837 1.6146622
3.7230377 9.649169 1.6181343
2.4587197 9.6561394 1.6115721
2.4805601 9.6561394 1.6157253
0.0030384064 9.685957 1.6106788
2.3880377 9.6819611 1.6115764
2.5030384 9.698988 1.6165893
7.0115399 9.7161388 1.6153469
7.4891763 9.7161388 1.6155981
3.7230377 9.7786798 1.6174527
4.0446062 9.7761383 1.6139773
4.4822063 9.7761383 1.6183658
4.522366 9.7761383 1.6121991
4.840673 9.7761383 1.6145377
4.8992157 9.7761383 1.6162837
5.3244023 9.7761383 1.6169007
5.6895952 9.7761383 1.6110692
5.8089981 9.7761383 1.6162647
5.9696326 9.7761383 1.6148793
5.9737792 9.7761383 1.6185079
6.1999292 9.7761383 1.6160305
6.3643188 9.7761383 1.6100471
2.3880377 9.7945118 1.611357
0.24303818 9.8484612 1.6101127
4.0334082 9.8961391 1.6125171
4.2845058 9.8961391 1.6154528
4.6333952 9.8961391 1.6155159
4.6588387 9.8961391 1.6100867
5.1350269 9.8961391 1.619252
5.2948117 9.8961391 1.6104981
5.3951621 9.8961391 1.6171545
5.9039936 9.8961391 1.6104565
5.9333057 9.8961391 1.6143565
6.1527901 9.8961391 1.616241
6.4167743 9.8961391 1.6118177
6.6634712 9.8961391 1.6110618
6.7130375 9.8989992 1.6175282
0.76864564 9.9061394 1.6188822
1.5167166 9.9061394 1.6158502
2.2278705 9.9061394 1.6187088
3.6030378 9.9131451 1.6172549
0.24303818 9.9339962 1.6101078
3.7230377 9.9503765 1.6146454
6.8325033 9.9561386 1.6195724
0.24303818 9.9831457 1.6169798
3.5030384 10.024241 1.6181316
3.6030378 10.044503 1.6188042
3.7230377 10.109001 1.6166079
0.32296753 10.146139 1.6171018
0.81958878 10.146139 1.6107546
1.1099277 10.146139 1.6115282
1.5562649 10.146139 1.619879
2.2943459 10.146139 1.6158614
2.3064008 10.146139 1.6172318
2.3679221 10.146139 1.6152505
3.7230377 10.181356 1.6163158
0.0030384064 10.336724 1.6119841
7.837574 10.385716 1.610788
0.0030384064 10.455864 1.6108444
7.833643 10.454807 1.618199
3.6744685 10.556139 1.6167706
0.24303818 11.118823 1.6162775
0.0030384064 11.178368 1.611692
0.0030384064 11.287874 1.614486
7.7892003 11.65997 1.6182768
3.7115099 11.726139 1.616729
3.6030378 11.803063 1.6193794
3.6030378 11.82895 1.6165836
7.7547827 11.840753 1.610268
0.0030384064 11.912777 1.6196249
0.0030384064 12.145664 1.6115544
3.7230377 12.222315 1.6193271
3.8106613 12.326139 1.6107424
4.0050826 12.326139 1.6128412
4.5763516 12.326139 1.6192176
4.7202039 12.326139 1.6190879
5.0362387 12.326139 1.6142573
5.0950432 12.326139 1.6130505
5.6538811 12.326139 1.6111202
5.717618 12.326139 1.6189622
6.5888395 12.326139 1.6146932
7.4646788 12.326139 1.6199329
0.0030384064 12.346493 1.6168637
3.9789548 12.446138 1.6181586
4.2901869 12.446138 1.6139703
4.3254433 12.446138 1.6114324
4.495852 12.446138 1.6126828
4.9428835 12.446138 1.6198808
7.1456347 12.446138 1.6163857
7.9543433 12.558273 1.618903
3.7230377 12.756343 1.6119268
7.9343052 12.910439 1.6139457
7.6855135 13.058138 1.6147895
3.7230377 13.121036 1.6166778
3.7230377 13.246742 1.615841
7.9152207 13.245846 1.6153307
3.671689 13.26614 1.6144433
0.24303818 13.279854 1.6116936
0.0030384064 13.404322 1.6197606
7.8902845 13.684098 1.6159117
0.24303818 13.740605 1.6167198
0.24303818 14.159827 1.6117965
7.6230607 14.15572 1.6177146
0.0030384064 14.224559 1.6137397
7.8593421 14.2279 1.6166281
0.0030384064 14.289816 1.612583
7.6132045 14.328942 1.6193249
0.0030384064 14.38912 1.6178683
3.8613167 14.466141 1.6178105
4.1147976 14.466141 1.616776
4.287919 14.466141 1.6199951
5.3296247 14.466141 1.6157209
5.6223154 14.466141 1.6174929
6.2963781 14.466141 1.6131746
6.5432682 14.466141 1.6168613
7.3985128 14.466141 1.6181018
4.4180384 14.470486 1.6170413
0.44303799 14.674113 1.6199627
0.33657441 14.706139 1.616823
4.345963 14.706139 1.6131872
5.3094025 14.706139 1.6197913
5.6146593 14.706139 1.6112442
5.6609168 14.706139 1.6182107
5.7637634 14.706139 1.6101542
5.8789721 14.706139 1.6183678
6.0852647 14.706139 1.619527
6.1582804 14.706139 1.6113851
6.2418737 14.706139 1.616619
6.3603935 14.706139 1.6191353
6.7007494 14.706139 1.6151707
6.9731216 14.706139 1.6100159
7.7813807 14.706139 1.6168381
0.35943133 0.0061397552 1.629104
2.2469773 0.0061397552 1.6258774
2.4216642 0.0061397552 1.6281966
3.0483871 0.0061397552 1.622457
4.0095882 0.0061397552 1.6273774
4.4833455 0.0061397552 1.6200175
4.6149564 0.0061397552 1.6290324
4.6791668 0.0061397552 1.6288087
4.7995844 0.0061397552 1.620876
4.9175758 0.0061397552 1.6215539
6.783618 0.0061397552 1.6257315
6.7176514 0.010828889 1.6271588
0.0030384064 0.14285111 1.6292006
2.1580381 0.14611202 1.6201236
0.14495526 0.26613998 1.6272392
0.24510959 0.26613998 1.6272606
0.27510947 0.26613998 1.6278275
0.47814757 0.26613998 1.6261603
1.0234489 0.26613998 1.6229889
1.1053263 0.26613998 1.622107
1.1200085 0.26613998 1.6205254
2.2320912 0.26613998 1.620471
2.3169546 0.26613998 1.6249083
3.3989782 0.26613998 1.6237745
3.5147846 0.26613998 1.6266776
3.755821 0.26613998 1.6271865
4.1292906 0.26613998 1.6208888
4.1741099 0.26613998 1.6286829
4.8827772 0.26613998 1.6218137
5.5975227 0.26613998 1.6236987
5.6970158 0.26613998 1.6264946
6.7539306 0.26613998 1.6281401
6.8201723 0.26613998 1.6223389
1.1430378 0.30419084 1.6270996
5.7026501 0.33479679 1.6284093
2.1730375 0.35960597 1.6223136
6.9530373 0.35487807 1.6234456
0.31642655 0.50613976 1.6279144
0.39075407 0.50613976 1.6232657
3.0707524 0.50613976 1.6230334
3.4847729 0.50613976 1.6243311
3.5358372 0.50613976 1.623323
4.4746256 0.50613976 1.6211058
5.5982342 0.50613976 1.6218607
3.7230377 0.66533047 1.627419
6.7130375 0.79046428 1.6267883
3.7230377 0.88214028 1.6235546
3.6030378 1.0302522 1.6228306
3.7230377 1.0598428 1.6240473
6.9530373 1.2048651 1.6288075
6.9530373 1.2522503 1.6223075
6.9530373 1.3399377 1.6255386
0.0030384064 1.4539211 1.6280611
0.24303818 1.4985001 1.6242272
0.0030384064 1.6298885 1.6296139
3.7230377 1.7233748 1.6258281
3.7230377 1.7947801 1.6233945
3.6030378 1.8044504 1.6257255
3.6030378 1.8246399 1.6234286
3.7230377 2.2167261 1.6298877
3.7230377 2.2467229 1.6233597
0.24303818 2.3166573 1.6278304
0.0030384064 2.3697562 1.6294631
3.6030378 2.6253588 1.6236147
0.24303818 2.7439759 1.6247084
3.723038 2.8181705 1.6298383
0.24303818 3.1431153 1.6295279
6.7720981 3.4661388 1.6298133
0.94387215 3.4961395 1.6265464
1.7283791 3.4961395 1.6209352
3.6030378 3.5207937 1.6235596
3.7230377 3.5583434 1.6292056
3.4530382 3.5922379 1.6236281
3.6030378 3.6167841 1.6208206
0.24303818 3.6594625 1.6200418
0.3493098 3.7361393 1.6222353
1.1591355 3.7361393 1.624229
1.4222294 3.7361393 1.6217223
1.5762755 3.7361393 1.6206505
6.7130375 3.8668692 1.629441
0.0030384064 3.9953828 1.6250443
0.0030384064 4.078774 1.6282561
6.7130375 4.3641953 1.6280543
0.24303818 4.6088748 1.6267397
6.7130375 4.7458191 1.6229197
0.0030384064 4.7995272 1.6250311
6.7130375 4.8106174 1.6292719
3.7230377 5.0269861 1.6200149
6.9530373 5.1225891 1.6210575
6.9530373 5.1687832 1.6278044
0.0030384064 5.2643905 1.6232955
6.7130375 5.2603407 1.6268506
3.7230377 5.2789917 1.6214808
6.7130375 5.2965803 1.6234108
3.6030378 5.3635798 1.6230464
4.411273 5.4961395 1.6252363
4.4664907 5.4961395 1.6266055
4.5979743 5.4961395 1.6209633
4.9307079 5.4961395 1.624935
4.988905 5.4961395 1.626333
5.3801198 5.4961395 1.6254696
5.8197374 5.4961395 1.6219996
6.1555915 5.4961395 1.6293097
6.1816182 5.4961395 1.6256084
6.3406744 5.4961395 1.6243453
6.4180326 5.4961395 1.6208324
4.1225224 5.6161385 1.6260347
4.7387056 5.6161385 1.6257688
6.0891662 5.6161385 1.6281352
6.2771091 5.6161385 1.6216693
3.7230377 5.6248708 1.6222429
0.24303818 5.7198505 1.621743
3.7230377 5.7358418 1.6214299
3.7230377 5.9840322 1.629603
0.0030384064 6.0692863 1.6290742
6.9530373 6.0602865 1.6277758
2.3075926 6.2161388 1.6297038
3.7133684 6.2361393 1.6248986
2.5030384 6.2528205 1.6201338
0.24303818 6.2863712 1.6286322
0.0030384061 6.3557653 1.6214492
2.2630377 6.71875 1.6298311
2.5030384 6.7551866 1.6259447
2.2630377 6.7631698 1.6213039
6.8857827 6.7761383 1.6294743
2.4114182 6.8161392 1.6229964
0.24303818 7.0823503 1.6221832
3.637589 7.1361389 1.6229105
0.016909748 7.14114 1.6292448
3.6030378 7.2261281 1.6255898
3.7230377 7.6327705 1.6244218
0.76395524 8.3211384 1.6210833
0.98672938 8.3211384 1.6281711
1.0391359 8.3211384 1.6202718
1.1988599 8.3211384 1.6210524
1.2333546 8.3211384 1.6285577
1.7850301 8.3211384 1.6209624
1.4374989 8.4361401 1.62652
1.5060842 8.4361401 1.6221094
1.9585551 8.4361401 1.6201603
3.6030378 8.6658478 1.6275191
0.59883296 8.6861401 1.6279532
1.0990692 8.6861401 1.6201861
2.2588484 8.6861401 1.6213814
0.24303818 8.8061171 1.6204028
0.67089736 8.806139 1.6223383
1.3556415 8.806139 1.6261609
1.8721381 8.806139 1.6259723
1.9137559 8.806139 1.6230496
1.9285589 8.806139 1.6205485
2.1792605 8.806139 1.6278113
6.754962 8.806139 1.6298294
6.8144865 8.806139 1.627466
6.8227229 8.806139 1.6274529
3.7230377 8.8390627 1.6260887
0.0030384064 8.8610477 1.6290052
3.7230377 8.8604965 1.6232421
3.7230377 8.9051781 1.6253505
3.7230377 8.9376879 1.6206264
3.7230377 8.9544182 1.6224526
3.6030378 9.0747175 1.6209705
0.0030384064 9.0832968 1.6222495
0.0030384064 9.2146397 1.6230031
3.7230377 9.5494556 1.6299044
0.0030384064 9.5850353 1.6271585
0.0030384064 9.6766415 1.6253836
7.1645017 9.7161388 1.6279153
7.4867134 9.7161388 1.6272105
6.7130375 9.7529936 1.6204288
3.9738905 9.7761383 1.6245909
4.4471855 9.7761383 1.6289598
5.1305804 9.7761383 1.6237617
5.2471957 9.7761383 1.6208979
5.6059217 9.7761383 1.6244767
5.843504 9.7761383 1.6289288
6.2049208 9.7761383 1.6294969
0.24303818 9.8167906 1.6269076
3.8681006 9.8961391 1.6284727
4.056488 9.8961391 1.6254071
4.2649355 9.8961391 1.6238692
4.6189313 9.8961391 1.6206684
4.6499853 9.8961391 1.628516
4.9892497 9.8961391 1.6266963
5.060914 9.8961391 1.6248729
5.4812555 9.8961391 1.6223185
5.5219288 9.8961391 1.625053
5.7299395 9.8961391 1.6234517
5.832674 9.8961391 1.6256223
6.1125975 9.8961391 1.6288702
6.2400765 9.8961391 1.6216288
6.3622837 9.8961391 1.6296232
6.5617304 9.8961391 1.6255169
6.5890956 9.8961391 1.6284239
1.3820521 9.9061394 1.6287117
1.7174317 9.9061394 1.6208134
2.5816364 9.9061394 1.622996
3.5119848 9.9061394 1.6241287
6.7130375 9.9496412 1.6246598
7.267767 9.9561386 1.6229103
0.0030384064 9.9882221 1.6208613
0.0030384064 10.01004 1.6218882
3.7230377 10.010914 1.6252701
7.8548937 10.081322 1.6222304
0.24303818 10.139524 1.6226444
2.6030378 10.132874 1.6285191
0.60397762 10.146139 1.629122
1.0851783 10.146139 1.6233981
1.666539 10.146139 1.6213328
1.8084996 10.146139 1.6225178
2.5487006 10.146139 1.6259649
0.24303818 10.333313 1.6228716
7.8346758 10.436653 1.6296399
0.24303819 11.1889 1.6278648
0.24303818 11.206141 1.6214336
3.700738 11.726139 1.622641
7.7508755 11.909421 1.6260414
3.6030378 11.912856 1.6289675
3.7230377 11.927448 1.6244462
3.6030378 12.010025 1.6231582
3.6030378 12.05624 1.6288797
7.739953 12.101383 1.6244574
0.0030384064 12.212616 1.626786
3.7230377 12.327158 1.6203204
3.7656541 12.326139 1.6266763
3.9574807 12.326139 1.6225586
4.0582318 12.326139 1.6271987
4.7970982 12.326139 1.6269288
4.8567085 12.326139 1.6235189
5.0877943 12.326139 1.627511
5.7289815 12.326139 1.6274077
5.7392178 12.326139 1.6218648
5.9962931 12.326139 1.6204612
6.9093304 12.326139 1.6294743
6.982954 12.326139 1.62133
7.7222414 12.412661 1.6210029
4.9164166 12.446138 1.6244866
5.3464661 12.446138 1.6260029
6.7235889 12.446138 1.6261674
7.0776391 12.446138 1.6275778
7.2389011 12.446138 1.6265701
7.4791708 12.446138 1.6260047
7.5092974 12.446138 1.6279581
7.9605136 12.449836 1.6202388
0.24303818 12.452015 1.6252735
0.0030384064 12.712797 1.6254098
3.7230377 12.769491 1.6288545
0.24303818 12.795195 1.6250769
3.6030378 12.911901 1.6250589
7.6934166 12.91925 1.6283298
0.24303818 12.945707 1.6202865
3.7230377 12.957674 1.6222844
7.6751161 13.240871 1.621353
0.24303818 13.292952 1.6280589
0.24303818 13.419788 1.6286383
0.24303818 13.476965 1.6238761
7.899457 13.522888 1.6286975
0.0030384064 13.57875 1.6221328
0.24303818 13.587288 1.6245199
7.8954725 13.592916 1.6240333
7.8939285 13.620045 1.623674
7.8785 13.891206 1.6292231
7.6226406 14.163109 1.625103
3.8554499 14.466141 1.6211283
5.678472 14.466141 1.6223849
6.6685934 14.466141 1.6252489
7.3441181 14.466141 1.628423
0.44303796 14.530669 1.6203573
7.8351121 14.653737 1.6282885
0.44303799 14.667482 1.6260996
4.2517481 14.706139 1.6271063
5.5330982 14.706139 1.6225718
5.5580678 14.706139 1.6218703
6.0266714 14.706139 1.6268672
6.1864581 14.706139 1.6233362
6.5666027 14.706139 1.625867
6.7397108 14.706139 1.6291741
0.94023669 0.0061397552 1.6386532
0.99100256 0.0061397552 1.6357833
2.790617 0.0061397552 1.6393996
2.9462378 0.0061397552 1.6355441
2.9710424 0.0061397552 1.6360443
3.43507 0.0061397552 1.6305118
6.9084864 0.0061397552 1.6341463
6.9565821 0.0061397552 1.6313238
7.3261085 0.0061397552 1.6343642
7.429831 0.0061397552 1.6334301
5.7176514 0.13200454 1.6379693
2.1580381 0.22950855 1.6333264
0.0030384064 0.25276428 1.6344572
0.038068015 0.26613998 1.6332002
0.39195964 0.26613998 1.6335411
0.88230097 0.26613998 1.6354935
0.97498703 0.26613998 1.6357108
2.4145002 0.26613998 1.6368408
2.5485182 0.26613998 1.6366922
2.8424904 0.26613998 1.6372765
3.0799894 0.26613998 1.632811
3.1305776 0.26613998 1.6337293
3.2346499 0.26613998 1.637957
3.2647572 0.26613998 1.6381828
3.3344789 0.26613998 1.6320132
3.4220798 0.26613998 1.6391276
3.5905428 0.26613998 1.6363368
3.691313 0.26613998 1.6341473
4.1882763 0.26613998 1.6358449
4.1998496 0.26613998 1.6301351
4.9250093 0.26613998 1.6346163
4.9404984 0.26613998 1.6347271
5.118691 0.26613998 1.6325943
5.3106575 0.26613998 1.6343877
5.6932726 0.26613998 1.6389672
6.7933941 0.26613998 1.6350467
6.9139018 0.26613998 1.634307
2.1730375 0.29368401 1.6322242
0.24303818 0.37527803 1.638993
1.1430378 0.42501676 1.6388464
2.6826677 0.50613976 1.6310319
3.1351357 0.50613976 1.6329904
3.2239373 0.50613976 1.6303451
4.042532 0.50613976 1.6356006
4.058053 0.50613976 1.6399237
4.0758429 0.50613976 1.6369394
4.162014 0.50613976 1.6352109
4.2638783 0.50613976 1.634639
4.386538 0.50613976 1.635569
4.3904719 0.50613976 1.639907
4.516571 0.50613976 1.6312156
4.7726974 0.50613976 1.6360139
5.6718874 0.50613976 1.6335442
3.7230377 0.64198291 1.6390823
0.0030384064 0.69738424 1.6376281
0.0030384064 0.70133781 1.6308002
6.7130375 0.95992196 1.637363
0.0030384064 0.99731266 1.6395335
6.7130375 1.0763695 1.6340243
6.9530373 1.1602175 1.638271
0.24303818 1.1996855 1.63798
0.24303818 1.2560366 1.6343255
3.6030378 1.2576749 1.6393139
0.0030384064 1.3018728 1.6341635
0.0030384064 1.3117157 1.6380699
3.6030378 1.3800826 1.6340415
0.24303818 1.4206625 1.6392872
6.8261604 1.4361401 1.6342566
6.8884807 1.4361401 1.6308382
0.24303818 1.611861 1.6341354
3.6030378 2.1826663 1.6344568
3.6030378 2.5096359 1.6375184
3.7230377 2.6051836 1.6345558
3.7230375 2.735899 1.6389027
3.6030378 2.8599262 1.6323526
3.6030378 2.926615 1.6334383
3.7230377 3.1796737 1.6365011
3.7230377 3.3469224 1.6329503
0.24303818 3.4477606 1.6309468
3.7230377 3.4479332 1.6362036
0.44760561 3.4961395 1.6327803
0.63557124 3.4961395 1.632479
1.5338387 3.4961395 1.6302106
1.5416912 3.4961395 1.6333967
1.8459678 3.4961395 1.6352921
2.4494941 3.4961395 1.6305355
2.6686344 3.4961395 1.6393474
3.7230377 3.5361228 1.6391622
0.24303818 3.5563498 1.6300393
3.6030378 3.6289368 1.6399326
3.7230377 3.6540554 1.6391535
3.6030378 3.6710732 1.6325558
0.28298911 3.7361393 1.6367317
0.45116162 3.7361393 1.6391482
0.50131732 3.7361393 1.6300329
1.2594407 3.7361393 1.630635
1.3325673 3.7361393 1.637386
1.4044696 3.7361393 1.6391613
1.6957457 3.7361393 1.6355486
2.3079886 3.7361393 1.6378801
6.7130375 4.0881476 1.636939
0.0030384064 4.2675195 1.6399679
0.24303818 4.268074 1.6358547
6.7130375 4.28194 1.6346152
6.7130375 4.6326246 1.6392621
6.9530373 4.6406503 1.6383526
3.7230377 4.8649788 1.6324713
6.7130375 4.8982406 1.6344259
6.9530373 4.9165754 1.6377701
6.7130375 5.394969 1.6368144
3.6030378 5.4532089 1.6352686
3.7710302 5.4961395 1.6328868
4.2176218 5.4961395 1.6363025
4.3675566 5.4961395 1.6336223
5.1521444 5.4961395 1.6346123
0.24303818 5.5485525 1.6327013
0.0030384064 5.598793 1.6392221
3.8344567 5.6161385 1.6340854
3.9967246 5.6161385 1.6389904
4.4020429 5.6161385 1.6318922
5.0809984 5.6161385 1.6386304
5.1758842 5.6161385 1.6389991
5.5040712 5.6161385 1.6392701
5.6918378 5.6161385 1.6309087
6.5199432 5.6161385 1.6390387
6.6169949 5.6161385 1.6306343
0.24303818 5.7291451 1.6314051
6.7130375 5.8344994 1.6380259
3.7230377 5.8495245 1.6371036
0.0030384064 5.862174 1.6393104
0.0030384064 5.9190989 1.6325489
3.7230377 5.924232 1.6374526
3.7230377 5.9403186 1.635555
6.7130375 6.0909462 1.6314983
3.6030378 6.1396055 1.6356498
6.7130375 6.1785736 1.6309981
3.6117427 6.2361393 1.6357958
6.9530373 6.2393107 1.6347629
6.7130375 6.3109083 1.6379452
6.9530373 6.3526225 1.6373396
6.7130375 6.3706565 1.6326224
0.24303818 6.3852897 1.6339604
2.5030384 6.5238996 1.6309808
0.24303818 6.5598111 1.6327548
0.24303818 6.6465335 1.6311398
0.0030384064 7.1228709 1.6362612
