# .PCD v0.7 - Point Cloud Data file format
VERSION 0.7
FIELDS x y z
SIZE 4 4 4
TYPE F F F
COUNT 1 1 1
WIDTH 1604
HEIGHT 1
VIEWPOINT 0 0 0 1 0 0 0
POINTS 1604
DATA ascii
4.0297122 9.6361332 5.1123652
4.1827745 9.6361332 5.1126342
4.5049686 9.6361332 5.1120853
4.895647 9.6361332 5.1186285
5.2742443 9.6361332 5.1199431
5.6093073 9.6361332 5.1164684
5.6605501 9.6361332 5.1120472
5.7758574 9.6361332 5.1160455
6.0555291 9.6361332 5.1141276
6.3550506 9.6361332 5.1170177
6.5587316 9.6361332 5.1148257
6.686656 9.6361332 5.1170578
6.7984271 9.6361332 5.1127076
6.9495101 9.6361332 5.1147256
0.27789113 9.6461334 5.117238
0.35866857 9.6461334 5.1117902
0.38883388 9.6461334 5.1100254
0.57173645 9.6461334 5.1107149
1.5374794 9.6461334 5.1113262
7.7620478 9.6961327 5.1159682
0.24301529 9.7195768 5.1104898
0.0030155182 9.7527342 5.1122122
0.24301529 9.8248863 5.1161823
2.6030149 9.8736057 5.1122103
0.68494719 9.8861332 5.1172624
1.0379877 9.8861332 5.1101084
1.6036159 9.8861332 5.1153984
2.0758221 9.8861332 5.1158819
3.7230148 9.9759922 5.1176791
8.0780926 10.123022 5.1160908
7.8370619 10.134311 5.1174698
3.7230148 10.142337 5.1149549
3.6030149 10.15032 5.1115541
0.24301529 10.201525 5.1176877
3.6030149 10.274375 5.1144609
0.0030155182 10.342541 5.1153584
8.0402107 10.382582 5.1193733
0.0030155182 10.538601 5.1143112
0.24301529 10.741251 5.1139722
0.24301527 11.022219 5.1148043
7.7644868 11.409778 5.1181397
7.7640562 11.417365 5.1151738
7.7565937 11.548508 5.1140108
0.24301529 11.579202 5.1177549
3.7230148 11.696379 5.1114726
7.9857206 11.746414 5.1119256
0.0030155182 11.850405 5.1110363
3.6030149 11.907772 5.117631
0.2430153 12.018351 5.1125579
3.8078928 12.066133 5.1150131
4.5443459 12.066133 5.1169119
5.339572 12.066133 5.1192222
5.4483805 12.066133 5.1180277
5.6364603 12.066133 5.1160717
6.8564291 12.066133 5.1168098
6.9430795 12.066133 5.1143517
0.0030155182 12.184158 5.1156344
6.3097672 12.186132 5.1136026
7.2240014 12.186132 5.1177554
7.3435006 12.186132 5.1105266
7.3847418 12.186132 5.1140156
7.3918915 12.186132 5.1142678
0.24301529 12.208131 5.1160259
3.7230148 12.301591 5.1132636
7.9524007 12.332011 5.1125827
3.7230148 12.340613 5.1115551
7.7062593 12.433139 5.1121306
3.6030149 12.492479 5.1158724
7.7007418 12.530088 5.1109986
3.7230148 12.551819 5.11024
0.0030155182 12.609 5.1171079
3.6030149 12.631342 5.1158719
7.9232845 12.843719 5.1133208
7.6792412 12.907951 5.1175904
7.9189024 12.92074 5.1166072
0.0030155182 13.010419 5.1185822
0.24301529 13.013418 5.1139002
7.667038 13.122431 5.1117435
0.0030155182 13.159848 5.1129012
7.9037027 13.187862 5.1103945
7.8908753 13.413301 5.111279
0.0030155182 13.458918 5.1127143
7.6395264 13.60593 5.1145034
7.6373549 13.644088 5.1172738
0.24301529 13.928173 5.1197591
0.24301529 14.078841 5.118917
0.40779051 14.206135 5.1140223
3.7890184 14.206135 5.1188278
4.1155739 14.206135 5.1137395
4.2032685 14.206135 5.1144681
6.1565361 14.206135 5.1176929
6.2112303 14.206135 5.1196079
6.6092577 14.206135 5.1124377
7.602777 14.251785 5.1118526
5.148016 14.309362 5.1143618
0.4430151 14.329995 5.1142864
0.24301529 14.425364 5.1157498
0.16202979 14.446133 5.1164837
0.18827081 14.446133 5.1186929
0.30405787 14.446133 5.1144686
3.521153 14.446133 5.1140013
3.5879257 14.446133 5.1197948
3.8936796 14.446133 5.1153002
4.0767574 14.446133 5.1130743
4.2938514 14.446133 5.1191902
5.3377633 14.446133 5.1144648
5.6539741 14.446133 5.1195183
6.2755723 14.446133 5.1188426
6.3005524 14.446133 5.1184888
6.6480808 14.446133 5.1165581
7.2071686 14.446133 5.1151123
7.2700672 14.446133 5.1164303
7.3920751 14.446133 5.1177678
7.6064253 14.446133 5.1143112
0.24301527 0.0061618984 5.1219125
0.6449526 0.0061340332 5.1261287
0.67305887 0.0061340332 5.1250234
0.84242475 0.0061340332 5.1204457
2.2388356 0.0061340332 5.1251798
3.4004335 0.0061340332 5.1274042
4.7063999 0.0061340332 5.1205482
5.2748995 0.0061340332 5.128768
7.0574427 0.0061340332 5.1262517
5.7026272 0.053399414 5.1279306
7.2526283 0.083673067 5.1270528
0.0030155182 0.12599319 5.1242628
6.7326279 0.14755152 5.1215634
5.7026272 0.16605149 5.1261921
0.53836447 0.2461338 5.1200023
0.60711271 0.2461338 5.1249895
0.79831201 0.2461338 5.1225071
0.84065551 0.24613382 5.1296196
2.5447338 0.2461338 5.1230493
2.7192211 0.2461338 5.1259613
3.0493171 0.2461338 5.1296148
3.1878929 0.2461338 5.127811
3.7142577 0.2461338 5.1293559
3.8535342 0.2461338 5.1288037
3.9459319 0.2461338 5.1245508
4.0793018 0.2461338 5.1260381
4.9191074 0.2461338 5.1289911
5.3508229 0.2461338 5.1205978
7.2526283 0.33597791 5.1250291
7.2526283 0.3889358 5.1252017
7.2526283 0.56587738 5.1276221
7.0126286 0.59053832 5.1291614
7.0126286 0.71512854 5.1267033
0.0030155182 0.85487682 5.1255097
3.6030149 0.85548151 5.1226025
3.7230148 0.89271832 5.1268702
0.0030155182 0.9177075 5.1200285
3.6030149 1.0457206 5.1233282
3.7230148 1.1787065 5.1231327
7.0281463 1.1761341 5.1213379
3.6030149 1.3924712 5.1240025
0.0030155182 1.5456585 5.1299634
3.6030149 1.6451756 5.1274328
0.24301529 1.6970057 5.1241875
0.0030155182 1.8291588 5.1278486
0.24301529 1.9074038 5.12115
3.7230148 1.9383985 5.1219807
0.0030155182 2.0829659 5.1256328
0.24301529 2.3496449 5.1209545
3.7230148 2.4542158 5.1248226
0.0030155182 2.6808209 5.120223
3.6030149 2.7609231 5.1288157
3.7230148 2.8198943 5.124136
0.0030155182 2.8220406 5.1276932
3.7230148 2.8259966 5.1248703
1.8476932 2.836134 5.1287856
2.5276639 2.836134 5.1293945
2.8278165 2.836134 5.127512
2.8852143 2.836273 5.125
2.981926 2.8370013 5.125
2.9436209 2.8453996 5.125
3.0792403 2.8468971 5.125
2.8104293 2.8575404 5.125
3.2604442 2.8696518 5.125
2.8512754 2.8718929 5.125
2.9153111 2.8739688 5.125
3.1744466 2.8751926 5.125
2.7925591 2.8832266 5.125
3.0378265 2.8870933 5.125
2.7909565 2.9001241 5.125
2.9206223 2.9035251 5.125
2.7660697 2.9152877 5.125
2.7713923 2.915869 5.125
2.8408918 2.9136944 5.125
3.0218592 2.9255295 5.125
3.2900202 2.932425 5.125
3.1113446 2.9449577 5.125
3.1652589 2.9452698 5.125
3.2322474 2.9596746 5.125
3.3637514 2.9501171 5.125
3.1928036 2.9635601 5.125
3.2808638 2.9609015 5.125
2.9823549 2.9731143 5.125
3.0255475 2.9775605 5.125
2.7607031 2.9860313 5.125
2.8607612 2.98248 5.125
3.4403834 2.9808712 5.125
2.8230512 2.9903359 5.125
3.2569585 2.9990659 5.125
2.8023572 3.0062013 5.125
3.0142989 3.0061908 5.125
3.328038 3.0042655 5.125
3.3455927 3.0199354 5.125
0.24301529 3.0205526 5.1293344
2.9071951 3.0232968 5.125
3.0727518 3.0397215 5.125
3.3215454 3.0336094 5.125
3.4074323 3.0355072 5.125
3.1804652 3.0466404 5.125
3.2371862 3.0449748 5.125
2.7861524 3.0575767 5.125
3.1836262 3.0534978 5.125
3.3355305 3.0590835 5.125
3.3380775 3.0616217 5.125
3.3915844 3.0654516 5.125
0.45592371 3.0761337 5.1200123
1.1737494 3.0761337 5.1285176
1.3942397 3.0761337 5.1222
1.4885014 3.0761337 5.1245818
1.4943659 3.0761337 5.12568
1.627573 3.0761337 5.1290975
1.6648208 3.0761337 5.1255445
1.8459475 3.0761337 5.1230574
2.8960097 3.0753865 5.125
3.2849157 3.076134 5.1294861
3.3048155 3.0761337 5.1250424
3.7230146 3.124917 5.1247177
3.7230148 3.1552994 5.1202455
7.1919079 3.2061329 5.1241531
3.6030149 3.2530558 5.1232495
7.0126286 3.367738 5.1213975
7.2526283 3.3609972 5.1209292
3.6030149 3.5500875 5.1258979
3.6274948 3.5694456 5.125
7.2526278 3.5733054 5.1277132
7.0126286 3.5879159 5.1235394
3.7182422 3.6250682 5.125
0.0030155182 3.7087336 5.1219196
0.0030155182 3.7574797 5.1227937
3.6107233 3.7708311 5.125
3.7061462 3.7861049 5.125
7.0126286 3.8483706 5.1281066
3.6721332 3.8997326 5.125
3.692699 3.8976979 5.125
3.632817 3.9040573 5.125
7.0126286 3.9434967 5.1211863
3.7080133 3.9598455 5.125
3.6926224 3.98177 5.125
3.6205144 3.9917784 5.125
3.6872733 3.9989669 5.125
3.7044106 4.0104294 5.125
7.0126286 4.0202155 5.1284566
3.6183896 4.0997343 5.125
3.689667 4.1252689 5.125
3.6979606 4.1529627 5.125
0.24301529 4.2020659 5.1246424
7.0126286 4.2063446 5.1212974
3.6164019 4.2498922 5.125
3.6141491 4.2554874 5.125
3.7227056 4.2849059 5.125
7.0126286 4.2918205 5.1280422
0.0030155182 4.3685746 5.1207943
3.6544409 4.3601403 5.125
3.6474681 4.3848319 5.125
7.2526283 4.4037418 5.1261587
7.0126286 4.4336929 5.1200585
3.6030149 4.4450736 5.1270585
7.2526283 4.447978 5.1280537
3.6644697 4.4521575 5.125
0.0030155182 4.4772835 5.129457
3.6030149 4.6241999 5.1205277
7.0126286 4.639636 5.1254377
7.2526283 4.6397915 5.1223307
7.2526283 4.7041912 5.1256976
7.2526283 4.7177176 5.125597
0.0030155182 5.1909866 5.1272564
7.0126286 5.1980453 5.127068
7.2526283 5.2250481 5.121613
4.7621861 5.2361336 5.127995
4.8276491 5.2361336 5.1205387
4.8533959 5.2361336 5.1223154
4.8800511 5.2361336 5.1244364
6.2049742 5.2361336 5.1203713
0.24301529 5.2716298 5.1284971
0.24301527 5.3032408 5.1240196
4.0289168 5.3561325 5.1202435
4.1895628 5.3561325 5.1242099
4.2405024 5.3561325 5.125514
4.4440823 5.3561325 5.1233549
5.340075 5.3561325 5.1279545
5.7317462 5.3561325 5.1211958
6.326889 5.3561325 5.121738
6.5291662 5.3561325 5.1285024
6.6435285 5.3561325 5.1293979
6.9055238 5.3561325 5.1224709
0.0030155182 5.3887558 5.1233706
3.6030149 5.4623971 5.1291237
3.7230148 5.5128632 5.1291203
0.0030155182 5.5905142 5.1296959
0.0030155182 5.865881 5.1221223
0.0030155182 5.9336743 5.1288872
7.2526283 5.9341154 5.1221037
3.690614 5.9889145 5.125
3.634892 6.0492568 5.125
3.6180789 6.0614786 5.125
7.0126281 6.0642238 5.1288586
2.5030155 6.0812445 5.126667
3.6239021 6.0942359 5.125
3.6707168 6.0964446 5.125
3.6808016 6.104949 5.125
3.7095804 6.1055613 5.125
3.6283655 6.1462088 5.125
3.6899905 6.1456542 5.125
3.7161865 6.1574216 5.125
3.6038506 6.1885953 5.125
3.6855135 6.1808653 5.125
7.2526283 6.1860266 5.1272583
3.6208115 6.1983566 5.125
3.7088399 6.2375131 5.125
0.24301529 6.2449741 5.1206555
3.6636555 6.2525024 5.125
3.6074061 6.2705488 5.125
3.6159177 6.3260756 5.125
3.6884699 6.3631706 5.125
3.6497183 6.3747082 5.125
3.6033013 6.3912239 5.125
3.6672118 6.3940287 5.125
7.2526283 6.4211879 5.1274438
7.0126286 6.439733 5.1214938
3.7230148 6.5142498 5.1285563
0.0030155182 6.5238643 5.1296058
3.683681 6.535737 5.125
2.3760071 6.5561333 5.1229072
3.6216049 6.564908 5.125
3.6594024 6.6250653 5.125
3.6908782 6.6698833 5.125
0.24301529 6.7700629 5.1283793
3.6413083 6.7802401 5.125
3.6386409 6.8651004 5.125
3.6030147 6.9958048 5.1227322
3.6030147 7.0324149 5.1298857
3.6030149 7.1951356 5.1237507
3.6030152 7.2381301 5.1202974
3.6030149 7.242496 5.1210208
3.6030149 7.4756598 5.1261234
3.6030149 7.5359316 5.1213188
3.6030149 7.5853682 5.1203074
3.6030147 7.5905085 5.1269193
0.13123731 7.9111328 5.124073
3.6030149 7.9658399 5.124053
0.33226961 8.0611324 5.1231871
0.47727007 8.0611324 5.121027
1.3602123 8.0611324 5.1205616
2.0257888 8.0611324 5.1294732
2.5030155 8.1020918 5.1278791
3.6030149 8.1051855 5.1237731
0.51226455 8.1761341 5.1257906
2.0393205 8.1761341 5.1269054
2.2542622 8.1761341 5.1259212
2.3880148 8.2215452 5.1235585
0.0030155182 8.3820524 5.1288362
0.2957018 8.4261341 5.1256003
0.57133955 8.4261341 5.1229291
0.8973676 8.4261341 5.1279483
1.0392582 8.4261341 5.1243281
1.23706 8.4261341 5.1229415
1.6714666 8.4261341 5.1200123
1.9745533 8.4261341 5.1243
0.24301529 8.4302845 5.1259031
0.0030155182 8.4918518 5.1221542
0.24301529 8.494875 5.1264668
2.3880148 8.5272894 5.1240463
2.3880148 8.5370655 5.1296058
0.89286453 8.546133 5.1250134
1.6034659 8.546133 5.120389
2.2765276 8.546133 5.1258693
2.3639269 8.546133 5.1266785
3.7230148 8.5486574 5.1213694
2.5030155 8.5564737 5.1217451
3.7230148 8.5802841 5.125948
7.0126286 8.5855083 5.1217904
2.4589589 8.626133 5.1244636
2.4261444 8.6427965 5.125
7.2526283 8.6633806 5.1260843
7.2526283 8.6772432 5.1259036
2.3918381 8.6805096 5.125
2.4069855 8.6975965 5.125
2.4171703 8.7103004 5.125
0.0030155182 8.7330055 5.1214595
2.4388585 8.7876453 5.125
2.3880148 8.8019171 5.1267023
2.4860115 8.8360338 5.125
3.6030149 8.8355074 5.1205754
2.4919701 8.9101782 5.125
2.4168978 8.9653702 5.125
2.4947236 8.9658947 5.125
7.2526283 8.9748783 5.1210718
2.4599469 9.010828 5.125
2.4454525 9.028697 5.125
2.4111924 9.091547 5.125
7.012629 9.1171541 5.12251
2.4649003 9.1253319 5.125
7.2526283 9.1545095 5.123971
3.7230148 9.205657 5.1212945
2.4884055 9.2456522 5.125
7.0126286 9.2408848 5.1251707
2.3999286 9.2610321 5.125
2.4428511 9.3069077 5.125
2.5025394 9.3089571 5.125
2.4476585 9.3282309 5.125
2.4157455 9.3390484 5.125
2.3998449 9.3451519 5.125
2.4200063 9.3528786 5.125
3.7230148 9.3570385 5.1222606
7.0126286 9.3924866 5.1245446
0.24301529 9.4020452 5.1242046
7.5283022 9.4561329 5.1253781
7.572875 9.4561329 5.1297555
7.6439114 9.4561329 5.1263933
0.24301529 9.4779882 5.1266155
3.7383037 9.5161324 5.1293263
4.2445493 9.5161324 5.1250429
4.5845313 9.5161324 5.1250224
4.7822065 9.5161324 5.1249323
4.9028773 9.5161324 5.1270208
5.0895901 9.5161324 5.1296253
5.1170998 9.5161324 5.1248426
5.2361169 9.5161324 5.1231618
5.4263239 9.5161324 5.125597
5.7601471 9.5161324 5.1270695
6.0018358 9.5161324 5.1219654
6.1491175 9.5161324 5.1273079
6.3430638 9.5161324 5.1214433
6.3582845 9.5161324 5.1235552
6.7374563 9.5161324 5.1263547
6.7868319 9.5161324 5.125947
6.8023939 9.5161324 5.1292191
6.876935 9.5161324 5.1227775
3.7230148 9.5468483 5.1297283
0.24301529 9.554184 5.1230617
3.7230148 9.5664806 5.1220269
7.0126286 9.5623674 5.1277742
7.012629 9.6097059 5.1237116
3.8987951 9.6361332 5.12254
4.2337251 9.6361332 5.1228533
4.4267139 9.6361332 5.1210303
4.5516438 9.6361332 5.1256289
4.595746 9.6361332 5.1252518
4.6779227 9.6361332 5.1205568
5.2539115 9.6361332 5.1264291
5.272933 9.6361332 5.1240768
5.3409085 9.6361332 5.1293726
5.3739023 9.6361332 5.129396
5.4777126 9.6361332 5.1244068
5.6308231 9.6361332 5.1248083
6.3286977 9.6361332 5.1286478
6.4220085 9.6361332 5.1206698
6.4394493 9.6361332 5.1214042
6.5336447 9.6361332 5.1248732
6.7143059 9.6361332 5.1269693
6.7693591 9.6361332 5.1202865
6.8041096 9.6361332 5.1210489
0.5353108 9.6461334 5.1280088
1.5603902 9.6461334 5.1285925
2.4036851 9.6461334 5.1252928
2.9408376 9.6482458 5.125
3.1643276 9.6471052 5.125
3.1356184 9.6581688 5.125
2.7002776 9.6657019 5.125
2.9933326 9.6666698 5.125
3.2234783 9.6633673 5.125
3.4250226 9.6659136 5.125
2.8937211 9.6742191 5.125
2.9677551 9.6783619 5.125
3.0115561 9.6761284 5.125
3.3736987 9.6863327 5.125
3.4031076 9.6835442 5.125
3.5030158 9.6858149 5.1230674
3.2721663 9.6961403 5.125
3.4496379 9.697669 5.125
7.0141206 9.6961327 5.1266112
7.0617366 9.6961327 5.1246963
2.8419671 9.7114487 5.125
2.9241338 9.7163105 5.125
3.421025 9.7174873 5.125
2.7754841 9.7258425 5.125
3.1259596 9.727457 5.125
2.8175452 9.7328444 5.125
2.9422607 9.7307358 5.125
3.0924978 9.7351999 5.125
2.7726264 9.7475891 5.125
2.9615421 9.7429209 5.125
2.6310434 9.7577734 5.125
2.9271882 9.7551222 5.125
3.425714 9.7585087 5.125
2.9059992 9.7683258 5.125
3.0720396 9.76791 5.125
3.4420743 9.765729 5.125
2.8052444 9.7729263 5.125
2.9434428 9.7796326 5.125
2.7828128 9.799859 5.125
2.8214531 9.8058529 5.125
2.9203484 9.8077784 5.125
2.8653579 9.8115635 5.125
2.9652157 9.813529 5.125
3.4096069 9.8142996 5.125
3.7230148 9.8107777 5.1262407
3.3669038 9.8278217 5.125
2.6419649 9.831522 5.125
2.761821 9.837863 5.125
2.8886578 9.8388195 5.125
2.9540253 9.8374453 5.125
3.022217 9.8343649 5.125
3.0905702 9.8309612 5.125
3.1907277 9.8359756 5.125
2.8829296 9.8460913 5.125
2.8346097 9.8640051 5.125
2.9859042 9.865653 5.125
3.0171335 9.8621168 5.125
2.8260429 9.8761597 5.125
3.4568012 9.8760595 5.125
3.4781983 9.8719025 5.125
0.40269154 9.8861332 5.1263647
1.0027341 9.8861332 5.1224256
1.5111365 9.8861332 5.1280766
2.797188 9.8861332 5.1285429
3.0881186 9.8861332 5.1291995
3.7230148 9.9392433 5.1287537
0.0030155182 10.128439 5.1277518
7.8362012 10.149436 5.1237407
3.6030147 10.156557 5.1281071
3.7230148 10.28067 5.1211224
8.0647888 10.356841 5.1293554
0.24301529 11.417782 5.126483
3.6030149 11.810065 5.1230431
0.0030155182 12.00309 5.1293087
3.871134 12.066133 5.1275892
5.0729475 12.066133 5.127768
5.6958337 12.066133 5.1210771
6.9257703 12.066133 5.1225181
7.2273092 12.066133 5.121079
7.9649725 12.111063 5.1273642
7.9639683 12.128718 5.1201086
3.7230148 12.132299 5.1278181
5.3724632 12.186132 5.1283836
6.6353993 12.186132 5.1284485
7.6915312 12.186132 5.1227512
3.6030149 12.365755 5.1247635
3.6030149 12.396973 5.1223669
0.0030155182 12.484945 5.1200986
7.9438987 12.481424 5.1232681
7.6966386 12.602208 5.1205654
0.24301529 12.685034 5.12568
0.0030155182 12.789588 5.123291
0.0030155182 12.873952 5.1261444
0.24301529 12.899628 5.1261415
3.6030152 12.996282 5.1258879
0.0030155182 13.03987 5.1240592
0.24301529 13.101623 5.121141
7.6653543 13.152016 5.1204
0.0030155182 13.237706 5.1252027
7.8969388 13.306738 5.1217422
7.6556592 13.322403 5.1273818
0.0030155182 13.331699 5.126358
7.8920927 13.391914 5.1248264
0.0030155182 13.530447 5.1213722
0.24301529 13.56727 5.1257668
0.0030155182 13.789474 5.1213369
0.24301529 14.009876 5.1294327
7.8559227 14.027591 5.1275196
3.6018395 14.206134 5.123693
3.7225742 14.206135 5.1206698
3.8772259 14.206135 5.1269436
4.1286402 14.206135 5.1200233
5.6394863 14.206135 5.1205778
6.0138378 14.206135 5.1293659
6.8225913 14.206135 5.1290407
6.8358164 14.206135 5.1211452
7.3146634 14.206135 5.1222167
7.6053677 14.206249 5.1256866
0.24301529 14.248528 5.1287122
7.6025243 14.256218 5.1237898
5.148016 14.260035 5.1270375
0.24301529 14.303288 5.1200905
7.5997381 14.305197 5.1228499
0.0030155182 14.318706 5.1285529
7.8378372 14.345436 5.1246634
0.4430151 14.365404 5.1296463
0.24301529 14.430232 5.1297994
7.8326058 14.43737 5.129878
0.027223239 14.446133 5.1201463
0.03908433 14.446133 5.1247563
0.30213597 14.446133 5.1268578
0.426139 14.446133 5.1260304
4.3610301 14.446132 5.1295872
6.922586 14.446133 5.1256227
6.973557 14.446133 5.127409
7.695015 14.446133 5.124423
7.7385011 14.446133 5.1237965
0.68292981 0.0061340332 5.1379194
1.0522985 0.0061340332 5.1321292
1.1008039 0.0061340332 5.1329112
2.3079655 0.0061340332 5.1350784
2.4382293 0.0061340327 5.1351476
2.4456716 0.0061340332 5.1363149
2.5236297 0.0061340332 5.1356344
2.5593429 0.0061340332 5.1315269
2.8815985 0.0061340332 5.1359296
3.0439696 0.0061340332 5.1376643
3.6847229 0.0061340332 5.1359148
3.9943528 0.0061340332 5.1317286
4.1680064 0.0061340332 5.1387949
4.1784019 0.0061340332 5.1333561
5.0077477 0.0061340332 5.1390243
5.5967984 0.0061340332 5.1307955
7.2342811 0.0061340332 5.1332436
7.2526283 0.063431568 5.131928
2.1730146 0.15703228 5.1327844
2.1730146 0.174272 5.1386328
0.57744169 0.2461338 5.1368203
2.4274907 0.2461338 5.1395431
2.7081609 0.2461338 5.132937
2.8368354 0.2461338 5.1358247
3.320286 0.2461338 5.1311398
3.4083588 0.24613379 5.1397543
3.5879612 0.2461338 5.1303177
3.8349411 0.2461338 5.1309919
4.2703099 0.2461338 5.1311126
4.5706449 0.2461338 5.1319356
6.8199329 0.2461338 5.1313057
3.6030149 0.26128796 5.130445
3.6030149 0.29928389 5.1327195
7.2526283 0.29965773 5.1359415
0.0030155182 0.31206 5.1340208
7.0126286 0.36712345 5.1307025
0.24301527 0.42449394 5.1358294
0.24301529 0.51479471 5.1301217
0.0030155182 0.5543071 5.13937
7.2526283 0.58512127 5.1334934
7.2526283 0.60108787 5.1321282
3.7230148 0.6114186 5.1391749
3.6030149 0.69025183 5.1324129
3.7230148 0.79345876 5.1357031
7.2526283 0.8336513 5.1317635
3.6030149 0.8623867 5.1371346
7.2526283 0.88719183 5.1365681
3.6030149 0.97286791 5.1360874
7.2526283 0.9746424 5.1319766
3.6030149 1.0250596 5.1324148
0.24301529 1.0395913 5.1300564
3.6030149 1.0514401 5.1323385
7.0789666 1.1761341 5.1349425
3.6030152 1.2187037 5.1389537
3.6030149 1.5105299 5.1329575
3.7230148 1.5587571 5.1330757
0.24301529 1.7860255 5.1341391
0.0030155182 1.9082451 5.1380968
3.6030149 2.042532 5.1366425
3.7230148 2.0566552 5.1370187
0.24301529 2.0611012 5.1305375
0.24301529 2.1272316 5.1380229
0.24301529 2.2528117 5.1367283
0.24301529 2.3779974 5.1341662
3.7230148 2.5174472 5.1377234
0.24301529 2.5506294 5.1305094
0.0030155182 2.7609134 5.1305656
3.6030149 2.767097 5.1352634
0.0030155182 2.824234 5.1377678
1.035663 2.836134 5.1389728
2.8403246 2.836134 5.1309743
3.6030149 2.8894305 5.137331
0.24301527 3.0618391 5.1351633
0.50194556 3.0761337 5.136641
1.6263812 3.0761337 5.1398535
2.1041596 3.0761337 5.1361547
2.23545 3.0761337 5.1349783
2.2434373 3.0761337 5.1338825
3.3014216 3.0761337 5.1314335
3.5111828 3.0761337 5.1311111
0.0030155182 3.1794624 5.1381874
3.7230148 3.1925988 5.1350055
7.1323485 3.2061329 5.1337318
3.6030149 3.2185788 5.1312799
7.0126286 3.3280652 5.1303558
7.2526283 3.4973598 5.1314678
3.6030149 3.6444774 5.1362939
3.7230146 3.8871536 5.1326733
7.0126286 3.8867719 5.1381583
7.2526283 4.1858253 5.1391997
7.0126286 4.2113123 5.1326275
7.0126286 4.4401045 5.1362729
3.6030149 4.5049763 5.1396875
7.0126286 4.5057311 5.1333146
7.2526283 4.7288485 5.1342096
7.2526283 4.9237075 5.1375475
0.24301529 4.9600887 5.1358747
3.7230148 5.103426 5.1309228
0.0030155182 5.1633048 5.1311741
3.7397132 5.2361341 5.1377945
4.0561028 5.2361336 5.1397643
4.7286081 5.2361336 5.1332984
5.2496839 5.2361336 5.130784
5.3470163 5.2361336 5.1392441
5.6213841 5.2361336 5.1396947
5.946475 5.2361336 5.1302671
6.6037202 5.2361336 5.1330714
3.6030149 5.2759266 5.1366692
7.0126286 5.2802773 5.1364837
0.0030155182 5.3382344 5.1327405
3.7355921 5.3561325 5.1326532
3.7609909 5.3561325 5.1376476
5.2702971 5.3561325 5.1344652
5.9523263 5.3561325 5.1369982
6.2450843 5.356133 5.1302457
6.6382394 5.3561325 5.132144
7.2526283 5.3708239 5.1304622
3.7230148 5.4454126 5.1328244
3.7230148 5.5904875 5.1374464
3.7230148 5.6126127 5.1389933
2.2630148 5.9683576 5.1307235
2.2630148 6.0508642 5.1392775
2.5030155 6.1039386 5.1330509
0.24301529 6.1264973 5.1383266
3.6030149 6.2287893 5.1389866
0.0030155182 6.247776 5.1311202
7.0126286 6.2682009 5.1362996
0.24301527 6.346993 5.1316142
3.7230148 6.3509588 5.1393433
7.2526283 6.4019141 5.1354761
3.6030149 6.432981 5.1338525
0.0030155182 6.4827166 5.130722
2.2630148 6.5170259 5.1349907
3.6030149 6.5198469 5.1395111
0.24301529 6.6521683 5.1394739
3.7230148 6.7869215 5.1322412
0.24301529 6.8141594 5.1398606
0.24301529 6.8260098 5.1320381
3.7230148 7.0456586 5.1341729
3.6030149 7.2609262 5.1300621
3.7230148 7.4133801 5.1381445
3.6030149 7.4353666 5.1336389
3.6030149 7.6310062 5.1331429
0.097839385 7.9111328 5.1344414
0.0030155182 7.9939733 5.1377959
0.51523906 8.0611324 5.131875
1.3378758 8.0611324 5.1341219
1.4331489 8.0611324 5.1341705
1.6102749 8.0611324 5.13694
1.7548777 8.0611324 5.1351066
1.8762184 8.0611324 5.1349459
2.5030155 8.1060371 5.1343083
0.96159637 8.1761341 5.1320372
1.0742264 8.1761341 5.1375065
1.1668774 8.1761341 5.1300702
1.3224373 8.1761341 5.1321611
2.2086794 8.1761341 5.1363482
2.3596301 8.1761341 5.1357503
0.24301529 8.2762737 5.1313429
0.24301529 8.3049192 5.1358104
3.6030149 8.3245573 5.1354918
1.1884971 8.4261341 5.137989
1.2294081 8.4261341 5.1386204
1.3404638 8.4261341 5.132123
1.5904429 8.4261341 5.1342983
1.8264219 8.4261341 5.1390157
1.8311238 8.4261341 5.1356726
1.9412624 8.4261341 5.1358466
2.2621851 8.4261341 5.1350904
2.2949362 8.4261341 5.1301188
2.5030155 8.4835577 5.1358681
2.3880148 8.532588 5.1306071
0.41408259 8.546133 5.1388688
0.71491963 8.546133 5.1386967
0.98332691 8.546133 5.1393256
1.140202 8.546133 5.1315198
1.5122514 8.546133 5.1369781
1.6654553 8.546133 5.1369939
7.1694918 8.546133 5.1304564
7.2526283 8.6422195 5.1368141
7.0126286 8.6542053 5.1365833
7.2526283 8.7446995 5.1354699
0.24301529 8.8062038 5.1352572
0.24301529 8.9320335 5.1309752
3.6030149 9.0317879 5.1339774
3.7230151 9.1229353 5.1347666
0.0030155182 9.1931553 5.1339302
7.0126286 9.2077417 5.1303768
2.3880148 9.2165051 5.1376753
2.5030155 9.3559856 5.1319647
2.5030155 9.3813696 5.135643
0.0030155182 9.4057016 5.1337357
2.5030155 9.4003782 5.1363926
3.6030149 9.4305182 5.1329083
7.0967569 9.4561329 5.1357784
7.243557 9.4561329 5.1360025
7.7010145 9.4561329 5.1308937
7.8497362 9.4561329 5.1389656
4.0040908 9.5161324 5.1369257
4.0603948 9.5161324 5.1311183
4.3374662 9.5161324 5.1366711
4.4260397 9.5161324 5.1360245
4.5373249 9.5161324 5.1388826
5.0993519 9.5161324 5.1345472
5.1666288 9.5161324 5.1388283
6.2035861 9.5161324 5.1331115
6.2394419 9.5161324 5.1348553
6.4806223 9.5161324 5.1319051
6.7152286 9.5161324 5.1377344
6.8895698 9.5161324 5.1341195
0.24301529 9.5695868 5.1367784
3.9335544 9.6361332 5.135561
4.0256577 9.6361332 5.1347985
4.0771346 9.6361332 5.1394076
4.2717786 9.6361332 5.1353927
5.1361866 9.6361332 5.1351109
5.7155428 9.6361332 5.1306067
5.7642136 9.6361332 5.1384449
6.0169749 9.6361332 5.1387424
6.851028 9.6361332 5.1314754
6.8901558 9.6361332 5.1337228
1.7043678 9.6461334 5.1358185
2.4897041 9.6461334 5.1384077
2.5030155 9.6447077 5.137517
3.1874471 9.6461334 5.1329465
3.4859776 9.6461325 5.1353536
3.7230148 9.6415215 5.139782
7.1470575 9.6961327 5.1381049
7.586709 9.6961327 5.1375227
8.0428362 9.6961327 5.136271
3.6030149 9.7085886 5.1339626
0.0030155182 9.8706551 5.1303849
0.24301529 9.8718061 5.1319103
0.58308679 9.8861332 5.1377077
1.7987541 9.8861332 5.1368771
2.6557963 9.8861332 5.1388164
3.0589042 9.8861332 5.1346579
7.8488503 9.9271278 5.1310611
7.8478699 9.9443598 5.134275
8.0867186 9.9714375 5.1300225
7.8401251 10.080471 5.1327081
8.0643234 10.365026 5.1319041
0.0030155182 10.511339 5.1366854
0.0030155182 10.528243 5.1329184
0.24301529 10.883394 5.1373205
0.0030155182 11.069795 5.1382313
0.0030155182 11.194316 5.1362166
0.24301529 11.389572 5.1335497
0.24301529 11.403231 5.1377845
7.7604618 11.480526 5.1310496
3.7230148 11.512341 5.135344
3.6030149 11.56903 5.1394997
0.0030155182 11.605263 5.1359992
7.7527595 11.615894 5.1312246
3.6030149 11.720663 5.1312122
3.7230148 11.864365 5.136632
3.6030149 11.897088 5.1392021
3.916513 12.066133 5.1389236
4.6633997 12.066133 5.1323967
4.8925714 12.066133 5.1339793
5.0331144 12.066133 5.1399841
5.1065235 12.066133 5.1395526
5.2367482 12.066133 5.1325483
5.3658848 12.066133 5.1323619
5.7437177 12.066133 5.1354651
5.8756657 12.066133 5.1322212
6.9615822 12.066133 5.130374
6.981504 12.066133 5.1371002
7.3220892 12.066133 5.1398721
7.3320775 12.066133 5.1380901
0.0030155182 12.076937 5.135005
7.8141766 12.111855 5.1386938
7.7239132 12.122848 5.1387682
4.4642076 12.186132 5.1353421
4.6590314 12.186132 5.1369834
5.6049623 12.186132 5.1347828
5.9470692 12.186132 5.1398468
3.7230148 12.43975 5.1374865
0.24301529 12.474446 5.1362786
3.6030149 12.78206 5.1350737
7.6596022 13.253098 5.1313992
7.8979044 13.289771 5.1386061
0.0030155184 13.373973 5.1351109
7.8875055 13.472523 5.1355238
7.8826623 13.557644 5.1321521
7.6254888 13.852628 5.1388731
7.6244574 13.870755 5.1341238
7.6219664 13.91453 5.1346016
7.621067 13.930342 5.1352453
7.6173086 13.996382 5.1340208
3.610918 14.206135 5.1323891
3.7252555 14.206135 5.1347151
4.2000194 14.206135 5.1327
5.5170112 14.206135 5.1323743
5.7067804 14.206135 5.1394067
6.2090125 14.206135 5.1309948
6.6726513 14.206135 5.1387358
6.6891518 14.206135 5.1339111
7.0202937 14.206135 5.1307678
7.6034098 14.24066 5.132915
0.36879456 14.446133 5.1318688
6.0342822 14.446133 5.1355858
7.0242286 14.446133 5.1315303
7.3560648 14.446133 5.1379256
7.7349501 14.446133 5.1304712
0.4232012 0.0061340332 5.1466012
0.48394054 0.0061340332 5.1421709
2.6378906 0.0061340332 5.1422462
3.1664538 0.0061340332 5.1458235
4.8412538 0.0061340332 5.1423378
7.0116096 0.0061340332 5.1453605
1.1430149 0.013918039 5.148603
0.24301529 0.031491339 5.1489635
0.24301529 0.098993488 5.1413651
6.7326279 0.10305897 5.1485028
7.0126286 0.15933907 5.1407247
2.1730146 0.19931409 5.1466618
6.7326279 0.20598467 5.1496153
5.7026272 0.22021958 5.1415191
0.59695125 0.2461338 5.1423783
2.7898743 0.2461338 5.1462808
3.6340308 0.2461338 5.1450057
3.8984172 0.2461338 5.1414638
4.1708298 0.2461338 5.1428933
4.5086408 0.2461338 5.1453571
4.545619 0.2461338 5.1424007
4.5565457 0.2461338 5.1483545
5.3733182 0.2461338 5.1470337
6.9088917 0.2461338 5.1488838
0.0030155182 0.28948718 5.1413965
3.6030149 0.37057394 5.1443896
0.0030155182 0.40680775 5.1414804
3.7230148 0.40217578 5.1485887
7.2526283 0.42120919 5.1406584
7.2526283 0.68042988 5.1414356
0.24301529 0.76705486 5.144382
3.7230146 0.86073631 5.141026
7.2526283 1.1111877 5.1460819
3.6030152 1.1247519 5.1417308
7.1128259 1.1761341 5.1457424
3.6030149 1.2566733 5.1432137
3.7230148 1.4261028 5.1409459
0.24301529 1.4360926 5.1496954
0.0030155182 1.8733933 5.146234
0.0030155182 2.1749594 5.1437469
3.7230148 2.276154 5.1439781
0.0030155182 2.324259 5.1482959
3.7230148 2.433404 5.1421742
0.46692365 2.836134 5.1469793
0.7045179 2.836134 5.1452188
1.0817091 2.836134 5.1414471
2.1144133 2.836134 5.1449313
2.2309546 2.836134 5.1486363
3.0701113 2.836134 5.1422648
3.4710946 2.8361337 5.1413512
3.5241232 2.836134 5.1428351
3.6030149 2.891201 5.1449509
0.62161714 3.0761337 5.1401978
0.72675014 3.0761337 5.1428361
1.1517146 3.0761337 5.1477938
1.5106232 3.0761337 5.1490154
1.5936698 3.0761337 5.1419349
1.6052549 3.0761337 5.1479273
1.7624089 3.0761337 5.1408968
1.8831538 3.0761337 5.1471858
1.9267713 3.0761337 5.14821
2.259804 3.0761337 5.1459641
2.5572879 3.0761337 5.1422439
2.8070943 3.0761337 5.1493883
2.8596683 3.0761337 5.1467261
3.0256324 3.0761337 5.1453533
0.0030155182 3.1683342 5.1448097
0.24301529 3.1895835 5.1495409
3.6030149 3.3553152 5.1468878
0.24301529 3.4398727 5.1489096
7.0126286 3.5144377 5.1483135
7.2526283 3.6626892 5.1412892
7.2526283 3.7896276 5.1414165
3.6030149 3.906472 5.1478844
3.7230148 4.0293555 5.14674
0.24301529 4.0727901 5.1468706
7.0126286 4.0723639 5.146244
7.2526283 4.1062202 5.1484489
3.7230148 4.2427092 5.1469884
3.7230148 4.4479537 5.1414676
0.24301529 4.4961762 5.1491547
7.2526283 4.5318031 5.1461449
7.0126286 4.5551605 5.1456027
0.0030155182 4.6059952 5.1423535
7.2526283 4.6898251 5.1415482
7.0126286 4.8096786 5.1450486
7.2526283 4.8440485 5.1478987
7.0126286 4.8514791 5.147871
7.2526283 4.9644551 5.1443081
7.2526283 5.0854492 5.1457348
7.2526283 5.0901031 5.1492853
3.6030149 5.1397114 5.142355
3.9411228 5.2361341 5.1474771
3.9778376 5.2361336 5.1484284
4.079082 5.2361336 5.1437035
4.2137904 5.2361336 5.1493979
4.8937163 5.2361336 5.1470995
5.181694 5.2361336 5.146801
5.6931429 5.2361336 5.1490707
5.9356256 5.2361336 5.149169
6.037971 5.2361336 5.1482449
6.341711 5.2361336 5.1498246
6.3636699 5.2361336 5.1470323
3.7230148 5.2607489 5.1438723
7.2526288 5.2658467 5.1471233
3.6030149 5.3080454 5.1462178
3.7393537 5.3561325 5.1463022
3.8801503 5.3561325 5.1444321
4.460578 5.3561325 5.1424694
5.7296119 5.3561325 5.1443291
6.1391373 5.3561325 5.1475072
6.8079967 5.356132 5.1421628
0.0030155182 5.4308143 5.1434689
0.0030155182 5.5484543 5.1421509
7.2526283 5.6353164 5.1495795
3.6030152 5.6502342 5.1477389
0.24301529 5.6961937 5.1438961
0.0030155182 5.741015 5.1487346
7.2526283 5.7568402 5.1433249
7.2526283 5.7983613 5.1406245
0.0030155182 5.837882 5.1453185
3.7230148 5.8366885 5.142746
0.0030155182 5.9116578 5.1433244
0.24301529 5.9395971 5.1497827
3.7230148 6.3017297 5.1452708
7.2526283 6.3688731 5.145402
0.0030155182 6.4161916 5.1417217
0.0030155182 6.4267397 5.1467543
7.0376573 6.5161324 5.1416087
2.3999791 6.5561333 5.1420431
3.7230148 6.6535373 5.1415968
0.24301529 6.7349758 5.1445823
0.0030155182 6.838191 5.1419139
0.084681705 6.881134 5.1433725
0.16496035 6.881134 5.1485963
3.7230148 6.9846058 5.1437588
3.6030147 7.3713388 5.1497016
3.6030149 7.4025235 5.1476688
3.6030149 7.5792561 5.145968
3.6030149 7.6200604 5.1446047
0.0030155182 8.0584612 5.1486335
0.79309249 8.0611324 5.1457949
1.7067064 8.0611324 5.1429405
1.9260056 8.0611324 5.1410661
2.4940989 8.0611324 5.1411071
0.53114367 8.1761341 5.1440172
0.74485219 8.1761341 5.1490765
1.1595402 8.1761341 5.147953
1.1989235 8.1761341 5.1493578
1.8436685 8.1761341 5.1433182
2.3880148 8.1740656 5.1420918
0.0030155182 8.2742872 5.1471467
3.6030149 8.2787428 5.1499414
3.7230148 8.3898468 5.147697
2.3880148 8.3924246 5.1455731
0.37816882 8.4261341 5.1449952
0.65078038 8.4261341 5.1473842
0.90690684 8.4261341 5.145072
0.9199065 8.4261341 5.1416016
0.97406995 8.4261341 5.1485615
1.2419418 8.4261341 5.142683
1.9267802 8.4261341 5.1488118
2.2171297 8.4261341 5.1409006
2.2907498 8.4261341 5.1433182
2.3000412 8.4261341 5.1497293
0.24301529 8.5007734 5.1471066
0.36542612 8.546133 5.1417031
0.92441034 8.546133 5.147438
0.95790124 8.546133 5.1414437
1.863209 8.546133 5.1403484
2.2428906 8.546133 5.1416783
7.181622 8.546133 5.1424427
3.6030149 8.6132469 5.1468329
2.5030155 8.7006111 5.1415029
3.7230148 8.7161274 5.1446385
2.3880148 8.7549486 5.1427383
2.5030155 8.8198299 5.1404114
3.7230148 8.823164 5.1446748
7.2526283 8.9125814 5.1461501
2.3880148 9.0810909 5.1471286
2.3880148 9.1883926 5.1496415
7.0126286 9.2786312 5.1449251
3.6030149 9.2967558 5.1463375
0.24301529 9.3322067 5.1402493
7.0728569 9.4561329 5.143899
7.355803 9.4561329 5.1463261
3.9451952 9.5161324 5.1428804
4.3030243 9.5161324 5.1411009
4.555685 9.5161324 5.1462622
4.6445699 9.5161324 5.1460342
5.3936424 9.5161324 5.1418076
5.4373999 9.5161324 5.149148
5.5353255 9.5161324 5.1479216
5.6655607 9.5161324 5.1428771
5.7761049 9.5161324 5.1414409
6.0855742 9.5161324 5.1436415
6.1243849 9.5161324 5.1407795
6.2109995 9.5161324 5.1425481
6.2321968 9.5161324 5.145967
6.3594542 9.5161324 5.1427455
6.3770943 9.5161324 5.1489568
6.8782449 9.5161324 5.1444778
3.6030149 9.5237656 5.147521
2.3880148 9.545433 5.1434846
0.24301529 9.5521393 5.1479273
2.3880148 9.6159229 5.1483145
0.24301529 9.6350937 5.1471586
3.7230148 9.6318235 5.1499529
3.977905 9.6361332 5.141623
4.0071921 9.6361332 5.1416893
4.6151156 9.6361332 5.141923
4.8882327 9.6361332 5.1468616
5.0836143 9.6361332 5.1489153
5.0946417 9.6361332 5.1444707
5.8719831 9.6361332 5.1466632
5.9485259 9.6361332 5.1418605
5.9757566 9.6361332 5.1423173
6.1885619 9.6361332 5.1494675
6.6037621 9.6361332 5.1491957
6.6277151 9.6361332 5.1490655
6.8403568 9.6361332 5.149045
0.41201228 9.6461334 5.1463175
1.0047681 9.6461334 5.1416278
1.3914182 9.6461334 5.1485219
2.7406383 9.6461334 5.1419082
3.6030149 9.643219 5.1478195
8.1046276 9.6566715 5.1436949
7.3763795 9.6961327 5.1416082
7.5676026 9.6961327 5.1438227
8.0839348 9.6961327 5.1416712
0.24301529 9.7226162 5.1477346
0.0030155182 9.7842827 5.1466436
3.6030149 9.8495417 5.1473365
0.32130602 9.8861332 5.1478124
0.94808543 9.8861332 5.1401062
1.2107563 9.8861332 5.1468515
1.4008585 9.8861332 5.1453257
1.6069666 9.8861332 5.1491337
1.8065209 9.8861332 5.1404319
2.3246565 9.8861332 5.147584
2.6476932 9.8861332 5.1437683
8.0916605 9.884573 5.1406431
3.6030149 10.048199 5.1469417
7.8391933 10.096859 5.1447077
0.0030155182 10.119044 5.1410861
3.7230148 10.254887 5.1495686
0.0030155182 10.38773 5.1456585
0.24301529 10.634836 5.1468744
0.0030155182 10.766344 5.1452804
0.24301529 10.851484 5.1441455
0.0030155182 10.895708 5.1477308
0.0030155182 11.011953 5.1435776
0.0030155182 11.257524 5.1480284
0.2430153 11.287023 5.1433144
0.24301529 11.301985 5.1448627
7.7743926 11.399124 5.1407251
0.0030155182 11.404102 5.1461887
7.933486 11.408175 5.1475039
3.6715703 11.466133 5.1434937
3.7230148 11.550085 5.1459045
0.24301529 11.562741 5.1418743
7.7554569 11.568487 5.1486578
3.6030149 11.657966 5.1440911
3.6030149 11.697043 5.1485848
0.0030155182 11.817631 5.1469126
7.7380247 11.874865 5.1452971
7.7370005 11.892869 5.1460962
7.845098 11.963369 5.1429534
4.0797548 12.066133 5.1429353
4.4209876 12.066133 5.1434913
4.4538498 12.066133 5.1473179
4.632369 12.066133 5.1464596
5.6693592 12.066133 5.1404662
5.8764954 12.066133 5.140038
6.0777321 12.066133 5.1412535
6.1886406 12.066133 5.147295
6.9722557 12.066133 5.1420126
7.5085206 12.066133 5.1426482
0.0030155182 12.177837 5.1420951
4.3272972 12.186132 5.1432524
4.5564003 12.186132 5.1476135
4.5619416 12.186132 5.1426926
4.6775427 12.186132 5.1448865
5.650641 12.186132 5.1436076
5.9970427 12.186132 5.141037
6.324173 12.186132 5.141017
7.37679 12.186132 5.146102
7.5426817 12.186132 5.1413355
3.7230148 12.253408 5.1442089
3.7230148 12.352455 5.1401281
7.705739 12.442268 5.1427355
3.7230148 12.470902 5.1441112
3.7230148 12.760169 5.1442456
3.6030149 12.798908 5.1415038
3.6030149 12.832556 5.1401563
3.6030149 12.911444 5.1492901
7.678525 12.920534 5.1419859
7.9098797 13.079303 5.1407571
7.6652975 13.153011 5.148819
0.0030155182 13.354323 5.1472235
0.0030155182 13.642059 5.1463118
0.25504795 14.206135 5.1489964
4.0661263 14.206135 5.1464467
5.4386072 14.206135 5.1471429
6.1476622 14.206135 5.1471882
6.3767118 14.206135 5.1490583
6.6987839 14.206135 5.1459723
6.743526 14.206135 5.1455412
7.3052659 14.206135 5.145752
0.24301529 14.239457 5.1413636
4.4180155 14.32201 5.1464748
0.19050419 14.446133 5.1403913
0.2155931 14.446134 5.1477227
0.31264374 14.446133 5.1401958
3.932025 14.446133 5.1433883
4.2313714 14.446133 5.1412086
6.1327114 14.446133 5.1400013
6.5653825 14.446133 5.149199
7.1586952 14.446133 5.1423926
7.6671314 14.446133 5.1404796
0.8364284 0.0061340332 5.1509018
0.88737506 0.0061340332 5.1504025
0.91768056 0.0061340332 5.1502795
1.0921633 0.0061340337 5.1512671
3.0120723 0.0061340327 5.1508598
3.4075003 0.0061340332 5.1549015
4.1341658 0.0061340332 5.1553874
4.7610044 0.0061340332 5.1515369
4.9158902 0.0061340332 5.1502147
7.0861073 0.0061340327 5.1561327
2.1730146 0.10592483 5.1558785
6.7326279 0.16171819 5.1546412
7.2526283 0.16070686 5.1576953
0.3822929 0.2461338 5.1553698
0.65718937 0.2461338 5.15732
2.4012587 0.2461338 5.1573672
2.7826018 0.2461338 5.1514969
4.6566281 0.2461338 5.1524029
4.9236002 0.2461338 5.158927
4.9563589 0.2461338 5.1531706
4.9775395 0.2461338 5.1581855
5.3818417 0.2461338 5.151835
0.0030155182 0.30844203 5.1556773
7.0126286 0.3078523 5.1568131
3.6030149 0.40084928 5.1574101
7.0126286 0.51608008 5.1580391
0.24301529 0.55092889 5.1550136
7.2526283 0.6440348 5.1505775
7.0126286 0.72769445 5.1536822
3.7230151 0.77954817 5.1531196
7.0126281 0.92600965 5.1560044
7.0126286 0.96796298 5.1509585
7.0126286 1.0361198 5.1564736
7.2526283 1.0959296 5.1576376
0.0030155182 1.3302271 5.1532726
0.0030155182 1.4363288 5.1520586
0.0030155182 1.667196 5.1515579
0.24301529 1.8970543 5.1542788
0.0030155182 1.9711579 5.1533546
3.7230148 2.3679476 5.1555347
0.39381522 2.836134 5.1509142
0.76734126 2.836134 5.1556149
1.4875715 2.836134 5.1574154
2.0635538 2.836134 5.1502538
2.4141672 2.836134 5.1576138
2.630096 2.836134 5.1569114
2.9725995 2.836134 5.1505899
3.2647009 2.836134 5.1588802
0.0030155182 2.8777461 5.1505003
3.6030149 2.8738801 5.1560421
3.7230148 3.0149353 5.1543121
0.24301529 3.0719554 5.1520863
0.5906077 3.0761337 5.1555138
1.3321041 3.0761337 5.1543159
1.4043322 3.0761337 5.1517124
1.9869621 3.0761337 5.1541777
2.3804801 3.0761337 5.1546335
2.7266679 3.0761337 5.1509199
2.7929699 3.0761337 5.1579161
0.24301529 3.0844223 5.1520557
0.0030155182 3.130477 5.1573243
3.7230148 3.1388648 5.1526694
7.0126286 3.2579947 5.1542559
7.2526283 3.4004495 5.1553774
3.7230148 3.4126432 5.1539359
0.24301529 3.4220378 5.1564345
0.24301529 3.4633198 5.1535268
3.6030147 3.5925155 5.1597004
7.2526283 3.6176691 5.1590905
0.0030155182 3.8132434 5.1571598
0.24301529 3.846673 5.1514792
3.6030149 3.8403015 5.1593866
0.24301529 3.8534613 5.159729
3.6030149 3.9615741 5.1531534
3.7230148 3.9899616 5.1516752
7.2526283 4.1262836 5.1592045
3.6030149 4.1391869 5.1505899
7.2526278 4.4293194 5.1508684
7.0126286 4.4512486 5.1530795
0.24301529 4.6217465 5.1510587
7.0126286 4.9533863 5.1553631
7.0126286 4.9924493 5.1539431
3.7230148 5.069212 5.1545529
3.6030149 5.1395683 5.1508951
4.731719 5.2361336 5.1562715
5.1008434 5.2361336 5.1561937
5.1442156 5.2361336 5.1581855
5.2129698 5.2361336 5.1528788
5.4442744 5.2361336 5.1553297
5.7402215 5.2361336 5.1581783
6.2555809 5.2361336 5.1539254
6.9433761 5.2361336 5.1522307
7.0126286 5.2830505 5.1561213
3.747366 5.3561325 5.1536708
4.7873373 5.3561325 5.1540575
4.8823924 5.3561325 5.1589575
5.0879087 5.3561325 5.1571536
5.1002131 5.3561325 5.1579413
5.5859995 5.3561325 5.1594925
6.278554 5.3561325 5.1562533
6.3640633 5.3561325 5.1554036
6.872396 5.3561325 5.1526475
3.6030149 5.6107712 5.1521144
0.24301529 5.7641244 5.1573825
0.0030155182 5.9048676 5.156743
0.0030155182 5.94488 5.1582065
7.2526283 5.9628654 5.1576509
3.7230148 6.137711 5.1559615
7.012629 6.1738033 5.1521525
7.0126286 6.2865844 5.1587071
7.2526283 6.2927914 5.1513433
2.5030155 6.3400116 5.1596637
2.5030155 6.3534169 5.1590118
7.2526283 6.3524814 5.1519914
2.2630148 6.3625336 5.1509218
3.6030152 6.519238 5.1502566
0.24301529 6.8188806 5.1521072
0.0030155182 6.844449 5.1578178
3.6030149 7.0884118 5.1597886
3.7230146 7.2324896 5.1506147
3.7230148 7.2670479 5.1534753
3.7230148 7.3879166 5.1546359
3.6030149 7.3989873 5.1537457
3.7230148 7.3933678 5.1508331
3.7230148 7.4041729 5.159492
3.7230148 7.7429237 5.15379
3.6030149 7.7852421 5.1569166
3.6030149 7.8723936 5.1598306
3.7230148 7.9658847 5.1564417
0.24328186 8.0611324 5.1556468
0.61544424 8.0611324 5.1566935
1.359804 8.0611324 5.1595211
1.5971278 8.0611324 5.1554193
2.2858291 8.0611324 5.1592016
0.24301529 8.1702728 5.1557202
0.49633983 8.1761341 5.1548271
0.52403355 8.1761341 5.157907
0.61302066 8.1761341 5.1538987
0.80986226 8.1761341 5.1519194
1.1580677 8.1761341 5.1501498
2.3650053 8.1761341 5.1512933
2.5030155 8.3466034 5.1536789
0.60856199 8.4261341 5.1505914
0.9382627 8.4261341 5.1539025
1.1718487 8.4261341 5.1586595
1.1916702 8.4261341 5.150898
1.3081771 8.4261341 5.1531119
1.5717373 8.4261341 5.1567683
2.0414376 8.4261341 5.151185
2.3622279 8.4261341 5.155983
2.3880148 8.4289017 5.1565971
0.24301529 8.4556255 5.1505103
2.3880148 8.527339 5.156311
0.68686223 8.546133 5.1500063
0.87704843 8.546133 5.1566553
1.0138417 8.546133 5.1505227
1.2634094 8.546133 5.1560383
1.5350871 8.546133 5.1523204
3.7230148 8.5735598 5.1572819
3.6030149 8.6285105 5.1503234
0.0030155182 8.7069693 5.1597142
0.0030155182 8.8238125 5.1561909
3.7230148 8.8315582 5.1583362
0.0030155182 8.8785582 5.1569767
3.7230148 8.8829174 5.1519909
3.6030149 8.9667664 5.1537075
2.5030155 9.1659489 5.1598511
7.2526283 9.1654806 5.1570363
7.2526278 9.1860628 5.1594157
7.0126286 9.1941042 5.1565728
2.3880148 9.2184372 5.1514349
7.2526283 9.2414598 5.154686
0.24301529 9.3734093 5.1564474
7.0126286 9.3857365 5.153605
0.24301529 9.4268446 5.1548109
2.5030155 9.4485712 5.1520567
0.0030155182 9.4596748 5.15205
7.0739031 9.4561329 5.1594305
7.7365289 9.4561329 5.1521554
7.8328857 9.4561329 5.1598015
2.3880148 9.5101395 5.1545787
3.8944943 9.5161324 5.1533217
4.2248483 9.5161324 5.1599483
4.2367992 9.5161324 5.1543989
4.9959021 9.5161324 5.1504974
5.4084044 9.5161324 5.1528645
5.6033702 9.5161324 5.1550331
6.1191478 9.5161324 5.1563745
6.3503847 9.5161324 5.1577992
6.4683242 9.5161324 5.1597524
6.5081654 9.5161324 5.1574121
6.7344847 9.5161324 5.1545706
6.8424168 9.5161324 5.152658
2.3880148 9.5471478 5.1545544
7.0126286 9.5415697 5.1542368
7.0126286 9.5761642 5.1542306
3.7230146 9.5872498 5.150876
4.5096521 9.6361332 5.1528683
4.5752625 9.6361332 5.154942
4.653944 9.6361332 5.1584673
4.6788073 9.6361332 5.1543217
4.9204884 9.6361332 5.1598792
4.9536138 9.6361332 5.1547904
5.221458 9.6361332 5.151166
5.7501187 9.6361332 5.1576796
5.9485712 9.6361332 5.1506071
6.0973568 9.6361332 5.1549907
6.3736157 9.6361332 5.1539483
6.717824 9.6361332 5.1574235
6.7238464 9.6361332 5.1520619
6.767283 9.6361332 5.1565123
6.957283 9.6361332 5.1508775
0.73061758 9.6461334 5.1557875
0.7847448 9.6461334 5.1507668
0.99873364 9.6461334 5.1593981
1.1129004 9.6461334 5.1596766
3.1878428 9.6461334 5.1592817
7.0126286 9.6484795 5.1589932
3.6030149 9.6920242 5.1523256
7.1175857 9.6961327 5.1582594
7.143712 9.6961327 5.156209
7.1937814 9.6961327 5.1503325
7.2333398 9.6961327 5.1515107
7.8895903 9.6961327 5.1547441
8.0161514 9.6961327 5.1502819
3.6030149 9.8549013 5.1548963
0.24722743 9.8861332 5.1534958
0.3659873 9.8861332 5.1555977
0.47289544 9.8861332 5.1576276
1.1879908 9.8861332 5.1555195
1.8264225 9.8861332 5.1500025
2.078717 9.8861332 5.159308
2.1396582 9.8861332 5.1584311
2.144382 9.8861332 5.1548915
2.1834764 9.8861332 5.1528869
2.8564615 9.8861332 5.1565714
3.5570242 9.8861332 5.1596885
7.8441916 10.009018 5.1514955
8.0834198 10.029398 5.154932
8.0720797 10.228698 5.1527004
3.7230148 10.279915 5.1551499
3.6223722 10.296133 5.1579466
7.824347 10.35778 5.1581755
0.24301529 10.372986 5.1518197
7.877038 10.373297 5.1551952
0.24301529 10.382154 5.1500998
0.24301529 10.710935 5.1578355
0.24301529 10.796556 5.1522083
0.0030155182 10.832354 5.151494
0.24301529 11.07585 5.1513853
0.0030155182 11.185162 5.150948
0.24301529 11.196464 5.1550331
0.24301529 11.231903 5.1528492
0.24301529 11.396754 5.1521378
0.0030155182 11.429731 5.1557817
3.6030149 11.504707 5.1512351
0.0030155182 11.539353 5.159914
3.6030149 11.561734 5.1500244
3.7230148 11.590772 5.1548924
3.6030149 11.642293 5.1549916
0.0030155182 11.751473 5.1586757
0.0030155182 11.95048 5.1563501
3.6030149 11.956297 5.1505637
7.8657084 11.964541 5.1575031
3.7230148 12.067024 5.157692
4.573185 12.066133 5.1500444
6.0651875 12.066133 5.1581483
6.4154921 12.066133 5.1569748
7.0236115 12.066133 5.1584702
7.5709333 12.066133 5.1584454
0.24301529 12.082542 5.1537328
3.7230148 12.092655 5.1568336
7.723012 12.138691 5.1587119
7.9622173 12.159487 5.1506233
4.1347604 12.186132 5.1599874
4.2863836 12.186133 5.1586742
5.3290153 12.186132 5.1556253
5.3789716 12.186132 5.1562252
6.029315 12.186132 5.1523142
6.3656206 12.186132 5.1515646
7.4823442 12.186132 5.1500607
7.6393127 12.186132 5.1533566
0.0030155182 12.252876 5.1549106
3.6030149 12.262691 5.1593094
3.6030149 12.341669 5.1583672
3.7230148 12.361315 5.1507211
0.0030155182 12.373565 5.1588354
0.0030155182 12.437679 5.1528759
0.0030155182 12.616528 5.1551056
3.6030149 12.615249 5.1581011
3.7230148 12.781649 5.156827
3.6030149 12.928766 5.1529613
7.6733208 13.012001 5.1589007
7.9137464 13.011353 5.1547594
7.9131651 13.021567 5.1508508
0.24301529 13.043921 5.1566334
7.9017391 13.222382 5.152904
7.8983264 13.282351 5.1599622
7.8864665 13.490786 5.1524477
7.8836827 13.539699 5.1507344
0.24301529 13.631793 5.1549358
7.8686318 13.804232 5.1554017
5.7702255 14.206135 5.1518979
3.4730148 14.230455 5.1523376
7.6002626 14.295973 5.1517086
7.5943155 14.400497 5.1552172
3.4730148 14.425517 5.1564322
7.5927382 14.428213 5.1536975
5.148016 14.430589 5.1583576
0.18824463 14.446134 5.1522717
0.36673614 14.446133 5.158309
3.6649687 14.446133 5.1554189
3.7132106 14.446133 5.1545863
4.0977354 14.446133 5.156168
4.2250142 14.446133 5.1520267
4.3076177 14.446133 5.1506281
5.5416527 14.446133 5.1515079
6.2871003 14.446133 5.1588287
7.0501971 14.446133 5.1509566
7.1659436 14.446133 5.1519141
0.79559445 0.0061340332 5.1610351
2.1821918 0.0061340332 5.1691704
3.5629058 0.0061340332 5.1632032
4.6967969 0.0061340332 5.1631284
4.9861631 0.0061340332 5.1678801
6.983851 0.0061340332 5.1628113
0.24301529 0.045580462 5.164063
1.1430149 0.054982033 5.1652865
0.24301527 0.17043322 5.1644363
7.2526283 0.17804338 5.1697588
0.45661086 0.2461338 5.1699204
0.64071596 0.2461338 5.1686077
2.3458068 0.2461338 5.1657763
2.5544975 0.2461338 5.1656036
2.6548529 0.2461338 5.1604815
2.977711 0.2461338 5.1628189
3.0501387 0.2461338 5.1663432
3.3288255 0.2461338 5.1623969
3.6768754 0.2461338 5.1605334
3.785871 0.2461338 5.167747
4.6355624 0.2461338 5.167388
4.8192096 0.2461338 5.1611028
5.0655079 0.2461338 5.1645489
5.2447734 0.2461338 5.1626029
0.24301529 0.32085106 5.1670213
7.2526283 0.4143346 5.1605997
3.6030149 1.010989 5.1644435
3.7230148 1.0108933 5.1682634
0.24301529 1.0231045 5.1621842
7.2526283 1.0703723 5.1610737
0.0030155182 1.1771945 5.1641402
7.0841975 1.1761341 5.169991
0.24301529 1.2421384 5.1652603
0.2430153 1.4013247 5.1687584
3.6030149 1.5663031 5.165307
0.0030155182 1.6351449 5.1631393
3.7230148 1.691272 5.16256
0.24301529 1.727909 5.1674538
0.0030155182 1.820137 5.1604948
0.0030155182 1.8928823 5.1682463
3.7230148 2.0740595 5.1623974
0.24301529 2.1317425 5.1672969
0.24301529 2.258956 5.1639886
0.24301529 2.2754142 5.1697254
0.24301529 2.281728 5.1648026
3.6030149 2.2816772 5.1659451
0.0030155182 2.4101009 5.1647506
3.7230148 2.4598413 5.1679697
3.7230148 2.5998962 5.1664991
0.63225543 2.836134 5.1609273
0.72802091 2.836134 5.1615505
0.91919774 2.836134 5.1650977
1.0974154 2.836134 5.1677041
1.1165814 2.836134 5.1644883
1.7245747 2.836134 5.1666718
2.0857506 2.836134 5.1626682
