# .PCD v0.7 - Point Cloud Data file format
VERSION 0.7
FIELDS x y z
SIZE 4 4 4
TYPE F F F
COUNT 1 1 1
WIDTH 1525
HEIGHT 1
VIEWPOINT 0 0 0 1 0 0 0
POINTS 1525
DATA ascii
2.0088227 9.6461353 0.9412483
2.4289801 9.6461353 0.9484095
3.5496464 9.6461353 0.94133842
7.0457907 9.6961346 0.94986671
7.1742668 9.6961346 0.94326138
7.2797751 9.6961346 0.94832975
7.8162026 9.6961346 0.94192135
7.9385409 9.6961346 0.94157881
8.0081787 9.6961346 0.94836211
7.8553658 9.8130188 0.9435035
3.6030378 9.8646412 0.94131827
0.66670054 9.8861351 0.9424848
0.72991252 9.8861351 0.94748205
0.81220418 9.8861351 0.94566059
0.84651375 9.8861351 0.94542253
0.93268907 9.8861351 0.94368523
0.97157955 9.8861351 0.9479093
1.3249094 9.8861351 0.94774449
1.3325124 9.8861351 0.94309163
1.533734 9.8861351 0.94134504
1.8065783 9.8861351 0.94930828
2.1372271 9.8861351 0.94010949
2.4194491 9.8861351 0.94499129
3.5309401 9.8861351 0.94519889
3.7230375 9.9408798 0.94903743
8.08706 9.9658279 0.94073695
3.6030376 10.106577 0.94795722
3.6865754 10.296135 0.94013888
7.826417 10.321803 0.94416958
8.064209 10.367439 0.94598657
7.8784065 10.373375 0.94620633
7.8900294 10.374037 0.94407725
0.24303818 10.546937 0.94023293
0.24303818 11.001595 0.94103843
0.24303818 11.481783 0.94962496
3.7230377 11.50248 0.94456661
3.7230377 11.517984 0.94222319
0.0030384064 11.59606 0.94793767
3.7230377 11.646601 0.9451865
3.7230377 11.652143 0.94337332
0.24303818 11.68609 0.94473535
3.6030378 11.752307 0.94765061
0.0030384064 11.761762 0.94200754
0.0030384064 11.878323 0.9452194
3.6030378 11.898472 0.94624001
0.0030384064 11.948055 0.94721711
7.9724331 11.980343 0.94546378
3.7230377 12.013401 0.94042432
4.2344456 12.066135 0.94536674
4.9343238 12.066135 0.9408015
6.1858664 12.066135 0.94496429
6.5407162 12.066135 0.94491017
7.875483 12.099938 0.94668669
7.741971 12.107745 0.94367266
3.78233 12.186134 0.94294751
4.5768304 12.186134 0.94867939
4.9701591 12.186134 0.94612563
5.160965 12.186134 0.9443596
5.2340159 12.186134 0.94525421
6.0861354 12.186133 0.94335938
6.4817877 12.186134 0.94697547
6.7733049 12.186134 0.94418776
7.6848459 12.186134 0.94049859
3.7230377 12.21441 0.94705051
3.7230377 12.293837 0.94803357
0.0030384064 12.529479 0.94519335
7.6983433 12.572652 0.94611406
3.7230377 12.667974 0.94966525
7.6854296 12.799616 0.9408958
0.0030384064 13.040834 0.94638854
0.24303819 13.144058 0.9413203
7.6643047 13.170883 0.94956166
0.24303819 13.328261 0.94789076
7.8932624 13.371757 0.94359118
7.8824625 13.56156 0.94562113
0.0030384064 13.646124 0.94343567
0.0030384064 13.701254 0.94767797
7.6273856 13.819708 0.9455266
7.8636398 13.892366 0.94595909
0.0030384064 13.985816 0.94421673
7.6126623 14.078473 0.94412661
0.26391575 14.206137 0.9498803
1.1187094 14.206137 0.94458491
1.1216031 14.206137 0.94924307
1.6240489 14.206137 0.94230723
2.1403251 14.206137 0.94932324
2.3902965 14.206136 0.94208831
3.9080267 14.206137 0.94802189
4.2938323 14.206137 0.94381768
5.3854027 14.206137 0.94688392
5.7744212 14.206137 0.94204801
5.9292889 14.206137 0.94078064
6.1959381 14.206137 0.94022715
7.1962352 14.206137 0.94628394
7.8435555 14.245347 0.94878584
7.8425827 14.262438 0.94136113
7.5957203 14.376211 0.94772196
0.026440766 14.446135 0.94197416
0.20096642 14.446135 0.94173324
1.2567405 14.446135 0.94332224
1.459124 14.446135 0.94882607
1.7971736 14.446135 0.94125229
1.8373594 14.446135 0.94151324
3.0306275 14.446135 0.9412356
3.1317177 14.446135 0.94173849
3.1473184 14.446135 0.94570994
3.3337855 14.446135 0.94779658
3.858026 14.446135 0.94082749
5.1928992 14.446135 0.94157755
5.3456612 14.446135 0.94972414
5.6132202 14.446135 0.94496
5.6287708 14.446135 0.94582832
6.0812101 14.446135 0.94458997
7.4010096 14.446135 0.94156885
0.075557977 0.0061359406 0.95649004
0.14063822 0.0061359406 0.9526177
0.51206982 0.0061359406 0.95392072
3.3651714 0.0061359406 0.95580864
3.9294758 0.0061359406 0.95300257
4.3097239 0.0061359406 0.95214558
7.0277162 0.0061359406 0.95957142
0.0030384064 0.039306559 0.95787179
0.24303818 0.058139678 0.95002323
7.2526512 0.10844522 0.95891434
6.7326508 0.13598326 0.95360452
7.0126514 0.1421019 0.95578569
7.0126514 0.22795692 0.95106941
0.83942497 0.24613571 0.95294273
1.0295302 0.24613571 0.95038968
2.5205057 0.24613571 0.95978153
2.5330698 0.2461357 0.95466328
2.6915436 0.24613573 0.95245773
2.7193599 0.2461357 0.95456821
3.0643859 0.24613571 0.95963573
3.5405741 0.24613571 0.95499605
4.1548028 0.24613571 0.95351517
4.2521024 0.24613571 0.95677787
5.3116713 0.24613571 0.95289886
0.24303818 0.26092607 0.9567613
3.6030378 0.31782013 0.95413256
0.0030384064 0.6005435 0.95088208
3.6030381 0.72376406 0.95026082
3.7230377 0.75234765 0.95826101
0.24303818 0.90833437 0.95986795
3.6030378 0.92077386 0.95236874
7.0126514 0.93258274 0.95154107
0.24303818 1.0125062 0.95934141
0.24303818 1.071732 0.95205891
7.0126514 1.1403507 0.95517647
7.2526512 1.1674521 0.95096648
0.0030384064 1.1972193 0.95248085
3.7230377 1.1919025 0.95920002
3.7230377 1.7148741 0.95055711
3.6030378 1.7300701 0.95619613
3.7230377 1.7790458 0.9509055
0.24303818 1.8689077 0.95318919
3.7230377 1.866713 0.95938718
3.6030378 1.9263284 0.95509148
0.0030384064 1.9488084 0.95236152
3.7230377 1.9616152 0.95826399
3.7230377 2.1588812 0.95147693
0.0030384064 2.2361553 0.95116317
3.6030378 2.2395449 0.95937812
0.0030384064 2.4392929 0.95479405
0.0030384064 2.7867734 0.95062673
0.24303818 2.8930612 0.9525212
3.6030378 2.9640734 0.95965254
0.24303818 3.1264954 0.95265639
3.6030378 3.2148693 0.95122945
7.2526512 3.2176206 0.95185953
0.74158347 3.2361355 0.9571166
2.5988579 3.2361355 0.95754266
3.7230377 3.2920523 0.9595148
3.7230377 3.300482 0.95873076
3.7230377 3.3183236 0.95060438
2.6830378 3.3518338 0.9573822
0.24303818 3.3666563 0.9500522
0.35532019 3.4761353 0.95718533
0.36495531 3.4761353 0.95136738
0.58622855 3.4761353 0.95573109
0.9713161 3.4761353 0.95564944
2.0739329 3.4761353 0.95743006
3.5960295 3.4761353 0.95549369
3.7230377 3.4999816 0.95165539
0.0030384064 3.5646873 0.95809537
7.0126514 3.6054065 0.95038348
0.24303818 3.911871 0.95474386
7.0126514 4.2095871 0.9531334
0.0030384064 4.3334746 0.95742196
7.0126514 4.3341541 0.9550792
0.24303818 4.3609996 0.95648324
0.24303818 4.4570599 0.95034015
7.0126514 4.5155649 0.95956635
7.2526512 4.5618029 0.95380044
3.6030376 4.7508345 0.95550913
7.2526512 4.8390374 0.957587
3.6030378 4.8937755 0.95136923
4.0136843 4.9361343 0.9553169
4.8235116 4.9361343 0.95611131
5.2579789 4.9361343 0.95754731
5.8042068 4.9361343 0.95108277
6.3677111 4.9361343 0.95252079
0.0030384064 4.9892254 0.9504267
3.6030378 4.9927311 0.9555161
4.6394944 5.0561352 0.95386386
4.8277979 5.0561352 0.95528376
4.9028444 5.0561352 0.95675564
4.9171114 5.0561352 0.95533085
5.0731888 5.0561352 0.95806104
5.1674938 5.0561352 0.95542955
5.5033522 5.0561352 0.95864737
6.0942421 5.0561352 0.95597345
6.3124633 5.0561352 0.95524752
6.338129 5.0561352 0.95553076
7.0126514 5.0542231 0.95028269
7.0126514 5.5655475 0.95982319
0.0030384064 5.696938 0.95203805
0.24303818 5.7775331 0.95970023
7.0126514 5.788208 0.95171601
2.2993982 5.9561348 0.9547174
3.7230377 5.9522805 0.95232666
2.5030384 5.9608455 0.95644748
3.7185893 5.9761353 0.95709133
7.2526512 5.9938335 0.9543426
2.2630377 6.0279684 0.95956326
2.5030384 6.0676241 0.95298809
2.5030384 6.074594 0.95227885
2.5030384 6.1595392 0.9507159
2.5030384 6.2399764 0.95080292
2.5030384 6.296299 0.95925671
7.0126514 6.3339429 0.9565531
0.0030384064 6.3820686 0.95214701
2.5030384 6.4142585 0.95092827
7.2526512 6.4841466 0.95465261
2.2630377 6.5439453 0.95093745
0.0030384064 6.6414328 0.95520633
0.24303818 6.8673668 0.95743215
0.088997439 6.8811359 0.95180136
3.6030378 6.9540367 0.95613754
3.7230377 7.3177242 0.95225155
3.6030378 7.6332588 0.95603305
3.6030378 7.7202425 0.95929265
3.7230377 7.9057736 0.95268524
0.091740355 7.9111347 0.95531589
0.24303818 7.9469123 0.95521486
0.0030384064 8.0184593 0.95351881
0.37542579 8.0611343 0.9558174
0.97921664 8.0611343 0.9509393
1.3835912 8.0611343 0.95988584
2.4418173 8.0611343 0.95309776
0.30318215 8.176136 0.95616513
0.68230122 8.176136 0.95916343
1.9111396 8.176136 0.95441163
2.0561295 8.176136 0.95979786
2.1357882 8.176136 0.95429593
2.3776135 8.176136 0.95633996
2.5030384 8.1781425 0.95374584
0.24303818 8.2371635 0.95352083
3.6030378 8.3042908 0.95145321
0.0030384064 8.3231802 0.95116776
0.74809825 8.426136 0.95299405
1.0812731 8.426136 0.95322841
2.2664957 8.426136 0.95947421
2.3132999 8.426136 0.95933038
0.28751415 8.5461349 0.95152497
0.35402414 8.5461349 0.95771772
1.1197178 8.5461349 0.95383859
1.2988235 8.5461349 0.95749187
2.5030384 8.5892334 0.95820814
0.0030384064 8.6395206 0.95210582
3.7230377 8.6442156 0.95874912
7.0126514 8.9159279 0.95786816
0.24303818 9.1719627 0.95698524
7.0126514 9.2367382 0.95461667
3.7230377 9.2967815 0.95675778
7.2526512 9.29251 0.95684254
0.24303818 9.4466171 0.95026737
7.5354481 9.4561348 0.95886356
7.6453009 9.4561348 0.9529618
7.9790239 9.4561348 0.95442921
8.0578384 9.4561348 0.95574456
3.8587313 9.5161343 0.95722282
3.9332726 9.5161343 0.95078099
4.0230751 9.5161343 0.95998985
4.3773818 9.5161343 0.9564448
4.5865488 9.5161343 0.95269227
4.6832309 9.5161343 0.95395577
4.7338305 9.5161343 0.95803481
4.9755192 9.5161343 0.95293051
5.1842899 9.5161343 0.95250726
5.2318096 9.5161343 0.95304608
5.3093424 9.5161343 0.95440292
5.398715 9.5161343 0.9515397
5.4995494 9.5161343 0.95683813
5.6185665 9.5161343 0.95515716
5.9913545 9.5161343 0.95988089
6.4911165 9.5161343 0.95495766
6.6433902 9.5161343 0.95192826
6.9784584 9.5161343 0.95264471
6.9973626 9.5161343 0.95067358
7.0126514 9.5425615 0.95628852
7.0126514 9.5632257 0.95358348
3.7230377 9.5708952 0.95218754
7.0126514 9.5887413 0.95210224
3.9315569 9.6361351 0.95895106
3.9707172 9.6361351 0.95284534
4.2020221 9.6361351 0.9551264
4.3136578 9.6361351 0.95933044
4.4126506 9.6361351 0.95338726
5.1048431 9.6361351 0.95519155
5.2579536 9.6361351 0.95559299
5.4817548 9.6361351 0.95357108
6.051343 9.6361351 0.95442045
6.1399198 9.6361351 0.95474803
6.5019407 9.6361351 0.95714712
6.8568664 9.6361351 0.95379996
6.9234161 9.6361351 0.95048457
0.67545021 9.6461353 0.95316106
1.4535469 9.6461353 0.95098668
1.6851529 9.6461353 0.95728928
2.0268939 9.6461353 0.95666558
2.4707022 9.6461353 0.95093465
0.24303818 9.681159 0.95227391
3.6030378 9.7394924 0.95254314
3.6030378 9.7570162 0.95801771
0.24303818 9.8017502 0.95668954
7.8546963 9.82479 0.95081955
8.0948792 9.8284197 0.9598465
3.7230377 9.8339672 0.95366901
0.0030384064 9.8685551 0.95215905
0.0030384064 9.8701496 0.9537012
0.25972551 9.8861351 0.95562798
0.73844582 9.8861351 0.95841742
0.78899837 9.8861351 0.95839798
0.95862061 9.8861351 0.95317626
1.052721 9.8861351 0.95235956
1.5665647 9.8861351 0.95562005
1.6683682 9.8861351 0.95578295
1.8111595 9.8861351 0.95717859
1.8498337 9.8861351 0.9512676
2.1625922 9.8861351 0.95466554
2.4416914 9.8861351 0.95809132
8.0906315 9.9030542 0.95814174
8.0841293 10.017334 0.95035678
8.0815296 10.063025 0.95308787
3.7230377 10.10562 0.9577145
0.24303818 10.27782 0.95255971
3.6422715 10.296135 0.95037657
7.8452721 10.37149 0.95561695
0.0030384064 10.664255 0.95048147
7.8596201 11.403973 0.95699811
7.9456654 11.408869 0.95449251
3.7230377 11.470795 0.95398444
0.0030384064 11.509186 0.95416188
3.7230377 11.507983 0.95711493
7.7591352 11.50425 0.9584595
0.0030384064 11.54825 0.95823061
7.9948711 11.586004 0.95994365
7.993329 11.613107 0.95997417
7.74825 11.69556 0.9596833
3.6030378 11.866051 0.95306712
0.0030384064 11.927071 0.95654029
3.6030378 11.998604 0.95205557
0.24303818 12.001888 0.95573425
3.6030378 12.00178 0.95050478
3.7230375 12.01498 0.95817673
3.6030378 12.046543 0.95983231
4.3346529 12.066135 0.95230329
4.3534403 12.066135 0.95056468
4.4124222 12.066135 0.95337629
4.5601826 12.066135 0.95673561
5.2787371 12.066135 0.95910019
5.3553295 12.066135 0.95240104
5.7670555 12.066135 0.95630342
6.0277205 12.066135 0.95393312
6.1749563 12.066135 0.95795369
6.5944052 12.066135 0.95444286
6.843389 12.066135 0.95527315
7.3886633 12.066135 0.95153463
7.7607822 12.108816 0.95173943
3.6030378 12.133909 0.95067102
4.5967898 12.186134 0.95609033
4.7851615 12.186134 0.95076346
4.7971892 12.186134 0.9587453
5.5267367 12.186134 0.95245624
5.6074224 12.186134 0.95350277
5.7075443 12.186134 0.95999146
6.3183126 12.186135 0.9556191
6.4305763 12.186134 0.95588285
6.6415362 12.186134 0.95811307
6.6712799 12.186134 0.95238018
7.303329 12.186134 0.95410103
7.5847526 12.186134 0.95359105
7.7147312 12.284643 0.95512134
7.7119875 12.332874 0.95543206
7.9523096 12.334011 0.95445836
7.7093105 12.379913 0.95334077
0.0030384064 12.455068 0.9551664
3.7230377 12.458637 0.95690167
7.698801 12.564617 0.95153904
3.7230377 12.66315 0.9571594
0.24303818 12.878801 0.95771205
7.6813183 12.871871 0.95319039
0.24303818 13.023976 0.95534402
7.9094157 13.087868 0.95397633
0.0030384064 13.207442 0.95960772
0.24303818 13.232431 0.95555121
0.24303818 13.246589 0.95964009
0.24303818 13.301085 0.95184237
7.6545477 13.342354 0.9536826
7.6415863 13.570133 0.9503243
0.24303818 13.618321 0.95785969
7.6350865 13.684381 0.95368755
7.8693972 13.791173 0.95159101
7.6129065 14.074176 0.95773327
7.8521953 14.093497 0.95259786
0.47817448 14.206137 0.95314944
0.54908103 14.206137 0.95802051
0.64220732 14.206137 0.95830917
0.69929957 14.206137 0.95185763
0.72892177 14.206137 0.95538735
1.4112461 14.206137 0.9515183
2.1868389 14.206137 0.95248359
2.8965397 14.206137 0.95637578
4.1953688 14.206137 0.95777619
5.3116212 14.206137 0.95382059
6.3443503 14.206137 0.95449531
6.9575844 14.206137 0.95194733
4.4180384 14.299105 0.95065266
0.20428371 14.446135 0.95764148
0.73742253 14.446135 0.95682096
1.6845391 14.446135 0.95412815
1.8750168 14.446135 0.95891446
3.0225291 14.446135 0.95035088
3.4525304 14.446135 0.9556089
3.9961848 14.446135 0.95158458
4.0597539 14.446135 0.9565444
5.4080601 14.446135 0.95958632
5.4695621 14.446135 0.95594913
5.6082788 14.446135 0.95276713
6.4992056 14.446135 0.95793772
6.6222501 14.446135 0.95127547
6.91605 14.446135 0.95389766
7.0143542 14.446135 0.95973635
0.39527208 0.0061359406 0.96037114
0.47794619 0.0061359406 0.96116757
0.93644148 0.0061359406 0.96614397
2.4266329 0.0061359406 0.96307993
2.6615379 0.0061359406 0.96498376
2.7316966 0.0061359406 0.96880394
2.9691749 0.0061359406 0.96836394
3.0320876 0.0061359406 0.96832508
3.2551115 0.0061359406 0.96708632
3.5547657 0.0061359406 0.96407104
3.6288712 0.0061359406 0.96599501
4.6272774 0.0061359406 0.96224272
4.7694464 0.0061359406 0.96592271
4.808671 0.006135941 0.96423113
5.1417537 0.0061359406 0.96434903
5.3413901 0.0061359406 0.9666993
5.3726172 0.0061359406 0.96102738
5.6671934 0.0061359406 0.96978891
6.8560019 0.0061359406 0.96738482
1.1430378 0.084587902 0.96684432
7.2526512 0.11189771 0.96892577
7.0126514 0.17578153 0.96740878
2.1730375 0.22416171 0.96520686
0.32062313 0.24613571 0.96277523
0.64182234 0.24613571 0.9699707
2.3567498 0.2461357 0.96686327
2.5493879 0.24613571 0.96526957
3.152808 0.24613571 0.96932119
4.4305162 0.24613571 0.96740746
7.0126514 0.3148334 0.96388102
7.0126514 0.52562207 0.96394241
0.0030384066 0.64940345 0.9680438
7.2526512 0.71460938 0.96871001
7.2526512 0.7231425 0.96367031
3.6030376 0.82578421 0.96042973
0.24303818 0.89359045 0.96717942
0.0030384064 1.0162725 0.96208096
3.7230377 1.1336305 0.96559346
3.7230377 1.1682556 0.96945655
0.0030384064 1.3789485 0.96434909
0.0030384064 1.386688 0.96653259
3.6030378 1.4269989 0.96460664
3.6030378 1.5925452 0.96375453
3.7230377 1.8120629 0.96304953
0.0030384061 1.8772081 0.96223956
0.0030384064 1.9934615 0.96137917
0.24303818 2.3266432 0.96299529
3.7230377 2.528805 0.96174359
0.24303818 2.6034315 0.9696244
3.6030378 2.6675785 0.9668346
0.24303818 2.6941707 0.96018308
0.0030384064 2.7761922 0.96685457
0.0030384064 2.8510625 0.96589565
0.24303818 2.8997288 0.9623608
3.6030378 2.9041147 0.96135139
3.6030378 3.0219548 0.96278125
3.7230377 3.1668806 0.96817148
7.1591415 3.2061348 0.9617936
3.723038 3.2270532 0.9663738
0.0030384064 3.2307529 0.96674985
0.70161128 3.2361355 0.96394527
1.0799067 3.2361355 0.96409494
1.6637655 3.2361355 0.96011972
1.7160014 3.2361355 0.96018845
2.1524491 3.2361357 0.96420258
2.5475793 3.2361352 0.96214908
3.6030378 3.241734 0.96445942
0.24303816 3.2531991 0.96136564
0.0030384064 3.2603366 0.96015799
7.0126514 3.2947857 0.96495825
3.6030378 3.3420811 0.96918988
3.7230377 3.3623855 0.96280348
3.6030378 3.3745031 0.96388173
0.24303816 3.396507 0.9650926
3.4530382 3.4380348 0.96408439
0.40259367 3.4761353 0.96767837
0.82858998 3.4761353 0.96951807
1.3277558 3.4761353 0.96045548
0.24303818 3.502532 0.96844423
3.6800284 3.5561352 0.96244335
7.0126514 3.6031208 0.96497774
0.24303818 3.6678951 0.96781486
7.0126519 3.9897752 0.96485257
7.2526512 3.9982104 0.96892464
7.0126514 4.1598043 0.96871662
0.0030384064 4.1755762 0.969468
0.24303818 4.2325187 0.96066874
7.0126514 4.2652812 0.96460497
0.0030384064 4.2770152 0.96099353
0.0030384064 4.3474436 0.96999711
3.6177263 4.4561348 0.96504921
0.0030384064 4.6268358 0.96306801
3.7230377 4.6461 0.96090531
7.0126514 4.6627126 0.96258175
3.6030378 4.7759562 0.96098554
0.0030384064 4.8145943 0.96388102
7.2526512 4.8567872 0.96289438
7.0126514 4.8822498 0.96371144
3.9001813 4.9361343 0.96127182
4.0957808 4.9361343 0.96830809
4.2354689 4.9361343 0.96872497
4.2830539 4.9361343 0.96838725
6.4029689 4.9361343 0.96325868
7.0126514 5.0478354 0.96992803
4.6260452 5.0561352 0.9627946
4.6347113 5.0561352 0.96480495
4.8111758 5.0561352 0.96619511
5.2020273 5.0561352 0.96858913
5.6034555 5.0561352 0.96942306
5.77244 5.0561352 0.96156204
6.0240388 5.0561352 0.9611752
6.3630018 5.0561352 0.9691838
6.9574642 5.0561352 0.9669956
3.6030378 5.1196709 0.96987319
0.0030384064 5.1220312 0.96954471
0.24303818 5.2569442 0.9603585
7.2526512 5.2532568 0.96185088
3.7230377 5.2959867 0.9623251
0.0030384064 5.4509411 0.96083152
3.6030378 5.4506197 0.96100962
0.24303818 5.5095749 0.96175814
3.6030378 5.5249529 0.96199107
7.2526512 5.6336403 0.96897304
0.0030384064 5.6585045 0.96306896
3.6030378 5.6539602 0.9620682
7.0126514 5.730052 0.96027756
0.0030384064 5.8196177 0.96654272
3.6030378 5.8845863 0.96569288
0.24303818 5.9390945 0.96137547
0.24303818 5.9463949 0.96043926
7.0126514 5.9417896 0.96592456
2.336957 5.9561348 0.96703935
7.0126514 6.1018729 0.9640941
0.0030384064 6.1125851 0.96121848
2.5030384 6.1142473 0.96359563
0.24303818 6.2265434 0.966488
3.6030378 6.9819965 0.968095
3.7230377 7.2776651 0.96496373
0.0030384066 8.0644903 0.9615491
0.41976804 8.0611343 0.96899199
0.42282921 8.0611343 0.96372753
1.1779817 8.0611343 0.96606612
2.2868171 8.0611343 0.96469653
2.4697549 8.0611343 0.96854281
2.3880377 8.1253815 0.96777564
3.7230377 8.1519985 0.9647001
3.7230377 8.1637325 0.960895
0.8954308 8.176136 0.96060526
1.2135804 8.176136 0.9611876
2.0035226 8.176136 0.96301556
2.2245209 8.176136 0.96829426
3.7230377 8.2291031 0.96857113
0.24303818 8.2947636 0.96467137
3.6030378 8.3968344 0.96544528
3.7230377 8.3972521 0.96320176
0.24303818 8.4454041 0.96376389
0.24303819 8.5038738 0.96116406
0.5369994 8.5461349 0.96051002
1.1145713 8.5461349 0.96223444
1.2199609 8.5461349 0.96007359
1.6370807 8.5461349 0.96581852
7.2215643 8.5461349 0.96686035
2.3942184 8.6261349 0.96894032
2.4180486 8.6261349 0.96767068
2.4982803 8.6261349 0.96263766
3.7230377 8.6206703 0.96417987
0.0030384064 8.6975842 0.96527439
3.7230377 8.7038431 0.96732622
3.7230377 8.7499371 0.96556646
7.0126514 8.7999268 0.96816909
0.0030384064 8.8340168 0.96499681
3.6030378 9.0353861 0.96672165
7.0126514 9.3382235 0.96856689
7.0126514 9.3485003 0.96890759
3.7230377 9.3673773 0.96331698
2.5030384 9.4065561 0.96671611
3.7230377 9.4169617 0.96038258
7.2239046 9.4561348 0.96930218
7.3179517 9.4561348 0.9690491
7.4245663 9.4561348 0.96537936
7.5110898 9.4561348 0.96488512
7.7499218 9.4561348 0.96416235
7.7551541 9.4561348 0.96112078
0.0030384064 9.4824467 0.96977681
3.9811051 9.5161343 0.96314538
4.1968069 9.5161343 0.96498102
5.0546484 9.5161343 0.96813858
5.1077986 9.5161343 0.96030974
5.9622107 9.5161343 0.96054447
6.0296969 9.5161343 0.96173424
6.130805 9.5161343 0.9678542
6.1716061 9.5161343 0.96284825
6.6403813 9.5161343 0.96310556
6.9368577 9.5161343 0.96361339
7.0126514 9.5260324 0.96696591
2.5030384 9.5363979 0.96838415
0.0030384064 9.5774765 0.96996731
2.3880377 9.5744972 0.96748018
7.0126514 9.5828981 0.96928525
2.5030384 9.5942659 0.96597511
3.7861559 9.6361351 0.96527505
3.8895602 9.6361351 0.96559221
4.0490103 9.6361351 0.96294194
4.080811 9.6361351 0.96788818
4.1769352 9.6361351 0.96517456
4.3782516 9.6361351 0.96376973
4.6801367 9.6361351 0.96587241
4.7411737 9.6361351 0.96032101
4.7827148 9.6361351 0.96692163
4.9598093 9.6361351 0.96395493
5.1263595 9.6361351 0.96353173
5.461422 9.6361351 0.96005678
5.483417 9.6361351 0.96180713
6.5528917 9.6361351 0.96736622
6.6220474 9.6361351 0.96759403
6.6444221 9.6361351 0.96649373
0.98316085 9.6461353 0.96977955
1.0365951 9.6461353 0.96757239
1.0793277 9.6461353 0.96397245
1.4562198 9.6461353 0.96907651
1.9612007 9.6461353 0.96058142
2.5148642 9.6461353 0.96267414
3.5441794 9.6461353 0.96780789
3.5030384 9.6539202 0.96072775
7.0126514 9.6744442 0.96072757
0.24303818 9.6864119 0.96169728
7.6889801 9.6961346 0.96607614
8.0790176 9.6961346 0.96867132
8.0942955 9.8386726 0.9681443
0.24303818 9.8727455 0.96106881
0.52062315 9.8861351 0.96772414
0.54765779 9.8861351 0.96594405
0.63772333 9.8861351 0.96549422
0.89234006 9.8861351 0.96450889
0.95839244 9.8861351 0.9681356
2.2041383 9.8861351 0.96857935
7.8422174 10.044104 0.96005118
0.0030384064 10.173569 0.96541941
0.24303818 10.377755 0.96211827
0.0030384064 10.63706 0.96210974
0.0030384064 11.325551 0.96796024
7.7829947 11.399612 0.96824312
7.9998913 11.497778 0.96612102
0.0030384064 11.558022 0.96141988
7.7564368 11.551674 0.96729338
3.7230377 11.59059 0.96638119
3.7230377 11.602929 0.96799672
0.24303818 11.666922 0.96410149
7.9901962 11.668169 0.96268797
3.6030378 11.789852 0.96253359
0.24303818 11.847331 0.96848917
0.24303818 11.885886 0.96740258
7.7342606 11.941425 0.96910095
7.8500829 11.963655 0.9641282
4.5844803 12.066135 0.96417487
5.5021996 12.066135 0.96920335
5.9637632 12.066135 0.96325225
6.2745881 12.066135 0.96846747
6.3797007 12.066135 0.96439964
6.4613466 12.066135 0.96966732
7.1544366 12.066135 0.96308684
3.7230375 12.082342 0.96892035
7.7245002 12.112946 0.96320075
3.7230377 12.127564 0.96298575
7.7229261 12.140608 0.9618752
7.7221904 12.153534 0.96911019
3.7888017 12.186134 0.96505034
3.8338351 12.186134 0.96751362
3.8531961 12.186134 0.96539271
3.9733574 12.186134 0.96126407
5.4415927 12.186134 0.96731234
5.6305728 12.186134 0.96423304
5.656251 12.186134 0.96490127
6.1572633 12.186134 0.96744019
6.1793842 12.186134 0.96811402
7.4870787 12.186134 0.96120322
3.7230377 12.232433 0.96366811
0.0030384066 12.356668 0.96081316
0.0030384064 12.433195 0.96814895
7.9387093 12.573048 0.96800482
7.9319935 12.691059 0.96850598
0.0030384064 12.729911 0.96527731
7.6875095 12.763058 0.96095133
0.0030384064 12.827016 0.96093118
7.6829782 12.842701 0.9666642
7.9226561 12.855167 0.96704841
0.24303818 13.144146 0.96371436
0.0030384064 13.186915 0.96738923
0.0030384064 13.321181 0.96986127
0.0030384064 13.356808 0.96441293
7.8937974 13.362356 0.96389419
0.24303818 13.469579 0.96651787
7.6446123 13.516953 0.96164036
0.24303816 13.521038 0.96447575
0.24303816 13.578907 0.96907139
7.6314716 13.747896 0.96915776
0.0030384064 13.913775 0.96112925
7.8556871 14.032132 0.96400958
0.0030384064 14.046392 0.96787089
7.8545179 14.052677 0.96575212
7.6113682 14.101213 0.9629578
7.6101165 14.123208 0.96519792
0.51293063 14.206137 0.96387815
1.0082537 14.206137 0.96457464
1.3213199 14.206137 0.96299815
2.0444872 14.206137 0.96932232
2.1437042 14.206137 0.96168864
2.3199344 14.206137 0.96992278
3.1804171 14.206137 0.96985829
3.3085771 14.206137 0.96224809
3.6867971 14.206137 0.96874219
3.8659608 14.206137 0.96220154
6.3460226 14.206137 0.9628666
7.4194579 14.206137 0.96378231
4.4180384 14.274656 0.96872109
0.24303818 14.385248 0.96932858
0.24303818 14.401822 0.96986467
0.013034553 14.446136 0.96607476
0.29321507 14.446135 0.96172708
0.88259363 14.446135 0.96572858
0.97969818 14.446136 0.96822715
0.99775207 14.446135 0.96488976
1.0808564 14.446135 0.96103173
1.5391443 14.446135 0.9694019
2.0504169 14.446135 0.96807343
2.4798036 14.446135 0.96641219
2.5069926 14.446135 0.9684782
2.5644386 14.446135 0.96012896
2.7043626 14.446135 0.96316707
3.0599999 14.446135 0.96192241
3.1909573 14.446135 0.96959472
3.459188 14.446135 0.96392184
3.6801629 14.446135 0.96640736
5.3285427 14.446135 0.96657079
6.4825382 14.446135 0.96513218
6.5928564 14.446135 0.96731055
7.3479166 14.446135 0.9602688
7.6156974 14.446136 0.96876907
2.2521522 0.0061359406 0.97095585
2.830431 0.0061359406 0.97351182
3.6684549 0.0061359406 0.97053087
5.6538525 0.0061359406 0.97472656
0.24303818 0.074642465 0.97133034
7.0126514 0.09664607 0.97639495
1.1430378 0.1122968 0.97633785
2.1730375 0.15327668 0.97194082
0.24303818 0.17200951 0.97288704
5.7026501 0.21392883 0.97619963
0.64961529 0.24613571 0.97844422
0.84181368 0.24613571 0.97575098
3.5389433 0.24613571 0.97430468
3.6424019 0.24613571 0.97051674
3.7679043 0.24613571 0.97783273
4.9010396 0.24613571 0.97589165
5.2030849 0.24613571 0.97645003
5.3266568 0.24613571 0.97847253
5.5352497 0.24613571 0.97659183
6.847661 0.24613571 0.97430295
0.24303818 0.26088098 0.97159141
7.0126514 0.34302983 0.9734273
7.2526512 0.50170934 0.97681975
3.6030376 0.56892151 0.97528654
0.0030384064 0.83022749 0.97752035
7.2526512 0.85088623 0.97079515
3.6030378 1.0417602 0.97788566
0.0030384064 1.1604811 0.97474504
7.0126514 1.168649 0.97373259
3.7230377 1.189652 0.97454059
0.0030384064 1.3823116 0.97463489
3.7230377 1.6567262 0.9765476
0.24303818 1.8829819 0.97601688
3.6030378 1.9868734 0.97299385
3.7230377 2.0305018 0.97010356
0.24303818 2.2019544 0.97672343
0.24303818 2.3400652 0.97182661
0.24303818 2.3651469 0.97031534
3.6030378 2.3800831 0.97241062
3.7230377 2.431397 0.97970897
0.0030384064 2.4523005 0.97280592
0.24303818 2.6420383 0.97942734
0.24303818 2.7535973 0.97540522
0.0030384064 2.965085 0.97386569
3.7230377 3.0005505 0.97472864
7.0139375 3.2061348 0.97141886
7.1789956 3.2061348 0.97246945
3.7230377 3.2186527 0.97504348
0.29435253 3.2361355 0.9738611
0.74970865 3.2361355 0.9714331
0.78035152 3.2361355 0.97169399
1.0125539 3.2361355 0.97683823
1.2827311 3.2361355 0.97193205
2.4573123 3.2361355 0.97216147
3.5533817 3.2361355 0.97015333
3.5958681 3.2361355 0.97157353
0.0030384064 3.2410295 0.97083855
0.24303819 3.3639345 0.97453099
0.24303818 3.3778851 0.97571111
7.2526512 3.4294758 0.97865665
7.0126514 3.4356828 0.97129291
0.3687526 3.4761353 0.97622949
0.58097863 3.4761353 0.97709841
1.9449952 3.4761353 0.9733721
2.1616104 3.4761353 0.97550917
7.0126514 3.5484641 0.97784799
3.617259 3.5561352 0.97996563
7.2526512 3.7594018 0.97234905
0.24303818 3.8279543 0.97618037
0.0030384064 3.8526261 0.97082376
0.0030384064 4.2060227 0.97522771
7.2526512 4.2112904 0.97916466
0.0030384064 4.2310448 0.97192085
0.0030384064 4.3123612 0.97178483
7.0126514 4.4392166 0.97387856
0.24303818 4.4741812 0.97825181
0.24303818 4.5628395 0.97178578
7.2526512 4.6217804 0.97458076
3.7230377 4.6595016 0.97813964
7.0126514 4.7298179 0.97605664
7.0126514 4.7688808 0.97463703
3.8455181 4.9361343 0.97705138
3.9228499 4.9361343 0.97649932
4.1031084 4.9361343 0.97324324
4.3729296 4.9361343 0.97836161
4.895505 4.9361343 0.97105461
5.3578401 4.9361343 0.97357851
6.0985446 4.9361343 0.97446406
6.1000042 4.9361343 0.97360551
6.1855884 4.9361343 0.97712761
6.8582778 4.9361343 0.97956675
3.6030378 4.9602966 0.97504002
3.9706607 5.0561352 0.97590768
4.0078616 5.0561352 0.97569478
4.7475739 5.0561352 0.97276026
5.0461845 5.0561352 0.97457016
5.1413641 5.0561352 0.97533965
5.561182 5.0561352 0.97465074
5.8190899 5.0561352 0.97850102
6.2286592 5.0561352 0.97983265
3.6030378 5.08988 0.97907782
3.7230377 5.0842314 0.9780091
7.0126514 5.1091428 0.97772324
0.24303818 5.2416096 0.97515327
7.0126514 5.2710185 0.97692031
7.2526512 5.2929473 0.97913122
0.24303818 5.3532276 0.97987938
7.2526512 5.3695087 0.97105122
0.24303818 5.4260283 0.9700352
3.6030378 5.4707637 0.97734678
3.7230377 5.4918008 0.97355813
3.6030378 5.5350933 0.97872031
3.6030378 5.6017523 0.97849047
7.2526512 5.6098733 0.97620457
0.24303818 5.6580257 0.97202885
3.7230377 5.7438517 0.97483754
0.24303818 5.8188782 0.97384679
0.24303818 5.848752 0.97314644
3.7218089 5.9761353 0.973575
2.5030384 6.0291424 0.97464681
7.2526512 6.1045976 0.970909
2.2630377 6.3278608 0.9796648
7.0126514 6.4642725 0.97574359
0.0030384064 6.597455 0.97708964
0.24303818 6.6449499 0.97886008
3.6806612 6.8761349 0.97883034
3.6030378 7.1426821 0.97223151
3.7230377 7.3486052 0.97906971
0.38891813 8.0611343 0.97408092
0.92307913 8.0611343 0.97738332
0.99337983 8.0611343 0.97330534
1.5770891 8.0611343 0.97898561
1.6046176 8.0611343 0.97413599
2.2969766 8.0611343 0.9741146
0.24303818 8.1362562 0.9771421
0.32225496 8.176136 0.97292686
2.3463085 8.176136 0.97622997
2.5030384 8.2415428 0.97715038
2.3880377 8.2663355 0.97479832
3.7230377 8.3207951 0.97723544
2.3880377 8.3491478 0.97729826
0.6346724 8.426136 0.97448087
0.91746634 8.426136 0.97159487
1.0815165 8.426136 0.97036856
1.2458847 8.426136 0.97702688
1.8339392 8.426136 0.97329736
3.7230375 8.4377613 0.97424001
3.7230377 8.4750462 0.9706077
0.37709478 8.5461349 0.97098124
1.0100565 8.5461349 0.97188526
1.095594 8.5461349 0.97575581
1.9065099 8.5461349 0.97638595
3.6030378 8.6913891 0.97207403
0.24303818 8.7254744 0.97506386
3.7230377 8.9136686 0.9773677
0.24303818 9.3133469 0.97336686
3.7230377 9.3447561 0.9768306
3.7230377 9.3978214 0.97087938
7.0126514 9.4195671 0.9711585
2.3880377 9.4401245 0.97813803
7.8655791 9.4561348 0.97442687
7.8956203 9.4561348 0.97056925
3.8812518 9.5161343 0.9790014
3.9872479 9.5161343 0.97483629
4.4517002 9.5161343 0.97355258
4.745471 9.5161343 0.97016555
5.1963758 9.5161343 0.97803253
5.5417204 9.5161343 0.97962022
5.6220207 9.5161343 0.97529286
5.6385822 9.5161343 0.97894698
5.9142528 9.5161343 0.9707464
6.1485653 9.5161343 0.97552437
6.6024132 9.5161343 0.97311902
6.6732769 9.5161343 0.97304255
6.7144594 9.5161343 0.97532219
3.7230377 9.591053 0.97568929
3.9033594 9.6361351 0.975559
3.9691722 9.6361351 0.97605973
4.2598901 9.6361351 0.97492915
4.3543825 9.6361351 0.97783738
4.4536886 9.6361351 0.97123426
4.8089828 9.6361351 0.97023046
5.0288858 9.6361351 0.97343695
5.159688 9.6361351 0.97484589
5.5140724 9.6361351 0.97995341
5.7060628 9.6361351 0.97126281
5.8446021 9.6361351 0.97514886
6.0765638 9.6361351 0.97740972
6.1415944 9.6361351 0.97860503
6.1968851 9.6361351 0.97856021
6.2207613 9.6361351 0.9762345
6.2561388 9.6361351 0.9722659
6.5406375 9.6361351 0.97308981
6.736927 9.6361351 0.97509134
6.7715302 9.6361351 0.97859013
6.85921 9.6361351 0.97756922
6.8872619 9.6361351 0.97581315
1.0468482 9.6461353 0.97239792
1.2137039 9.6461353 0.97693932
1.5439409 9.6461353 0.97392035
1.7331529 9.6461353 0.97032338
1.7944813 9.6461353 0.97111803
2.0613084 9.6461353 0.97923321
7.0126514 9.6805429 0.97848928
7.3436451 9.6961346 0.97059548
7.4074988 9.6961346 0.97034818
7.6083288 9.6961346 0.97970438
7.7309332 9.6961346 0.97379112
7.7891779 9.6961346 0.97475827
3.5030384 9.7065144 0.97957659
0.0030384064 9.7407408 0.97489434
3.7230377 9.7684183 0.97184092
0.24303818 9.8395348 0.97078586
3.5030384 9.8504372 0.97264707
8.0935745 9.8513279 0.97729903
0.24303819 9.8790417 0.97278404
0.3407945 9.8861351 0.97386295
0.88705969 9.8861351 0.97089326
1.3377484 9.8861351 0.97539479
1.3418396 9.8861351 0.97769177
1.6042402 9.8861351 0.97742951
3.5030384 9.8822956 0.97624201
0.0030384064 9.9195881 0.97712404
3.7230377 9.964551 0.9755767
0.0030384064 9.9837027 0.97116446
8.0822353 10.050629 0.97506791
0.0030384064 10.104391 0.97508925
3.6030378 10.132706 0.97056973
3.6706235 10.296135 0.9745537
0.24303818 10.305798 0.97088075
0.0030384066 10.406788 0.97364962
0.24303818 10.432093 0.97623622
0.0030384064 10.605793 0.97132427
0.24303818 10.691314 0.97745198
0.0030384064 10.817914 0.97008604
0.0030384064 10.927536 0.97421801
0.24303818 11.147257 0.97721058
0.0030384064 11.172106 0.97905177
0.24303818 11.265949 0.97885811
0.24303818 11.312252 0.97767985
7.8257017 11.402044 0.97281235
0.0030384064 11.524914 0.97850555
0.24303818 11.615824 0.97510582
7.7509265 11.648516 0.97148931
7.9908504 11.656667 0.97675478
3.7230377 11.694668 0.97785473
3.7230377 11.806466 0.97287661
3.723038 11.872128 0.9748497
7.9771805 11.896915 0.97655052
7.752841 11.958122 0.97427332
7.8070669 11.961206 0.97785467
3.8528099 12.066135 0.97345698
3.9763985 12.066135 0.97030115
4.4002542 12.066135 0.97502065
4.6988864 12.066135 0.97115672
5.1040101 12.066135 0.97442865
5.2213488 12.066135 0.9713397
5.2689743 12.066135 0.97695494
6.8755417 12.066135 0.97115517
3.7230377 12.10872 0.97575003
3.7230377 12.117247 0.97802806
7.7214432 12.166684 0.97576511
4.167172 12.186134 0.97715044
4.5601802 12.186134 0.97411931
4.5968904 12.186134 0.97550631
4.8338976 12.186134 0.9723264
4.8836465 12.186134 0.97624773
5.0651064 12.186134 0.97504818
7.5094633 12.186134 0.97168994
0.24303818 12.392014 0.97618341
3.6030378 12.477452 0.97111458
3.7230377 12.580888 0.97529685
7.6977243 12.583536 0.97542059
3.7230377 12.621969 0.97271419
7.9302216 12.722208 0.97734141
0.0030384064 12.897593 0.97794962
0.24303818 12.920343 0.97143745
7.6531305 13.367256 0.97961372
0.0030384064 13.478708 0.97302341
0.0030384064 13.533455 0.97380924
0.0030384064 13.650298 0.97028577
0.24303818 13.84054 0.97388482
7.6184659 13.976478 0.97106582
7.8518462 14.099639 0.972103
0.50077826 14.206137 0.97730422
0.68116236 14.206137 0.9717145
2.0207374 14.206137 0.97338909
3.4564271 14.206137 0.97170663
3.4899924 14.206137 0.97565079
3.8928773 14.206137 0.97503233
4.1981058 14.206136 0.97360462
5.3598866 14.206137 0.97967452
5.9015465 14.206137 0.97268033
6.6051998 14.206137 0.97602445
6.9907823 14.206137 0.97395527
7.1357303 14.206137 0.97271258
7.592113 14.439606 0.97248888
0.057809092 14.446135 0.97772831
1.0284331 14.446135 0.97460902
1.1234448 14.446135 0.97405058
1.3647819 14.446135 0.9786613
2.518434 14.446135 0.97793251
2.5366018 14.446135 0.975133
2.8381171 14.446135 0.97580457
3.0198805 14.446135 0.9725737
3.710824 14.446135 0.97969866
4.2644615 14.446135 0.97843397
5.5658889 14.446135 0.97190148
6.5057702 14.446135 0.97865826
6.7705865 14.446135 0.97504222
7.6503539 14.446135 0.97787029
0.36639062 0.0061359406 0.9848913
0.64019573 0.0061359406 0.98445141
2.5113952 0.0061359406 0.98068386
4.6829591 0.0061359406 0.98402667
5.4171019 0.0061359406 0.98358721
6.7708168 0.0061359406 0.98950392
7.0126514 0.019678533 0.98523653
2.1730375 0.039841034 0.98416102
7.2526512 0.071082279 0.98391801
7.0126514 0.089562677 0.98301899
5.7026501 0.13952468 0.98973525
7.0126514 0.23435234 0.98507458
0.35214502 0.24613571 0.98781818
1.0120478 0.24613571 0.98842883
2.2099416 0.24613571 0.9898535
3.6861658 0.24613571 0.98668128
4.4888892 0.24613571 0.9834249
5.0412426 0.24613571 0.98924971
7.2526512 0.27452624 0.98667496
7.2526512 0.31204307 0.98317689
0.0030384064 0.35470095 0.98460168
3.6030378 0.47652072 0.98596996
3.6030378 0.49256009 0.98957711
7.2526512 0.65168887 0.9884519
0.0030384064 0.68410617 0.9893856
7.0126514 0.76828957 0.9830001
0.0030384064 0.81614125 0.98081273
0.0030384064 0.89294499 0.98802364
3.6030378 0.95582324 0.982261
3.6030378 1.096112 0.98403347
3.6030378 1.503068 0.98234892
3.7230377 1.696842 0.98741734
3.6030378 1.7009847 0.98378181
0.0030384064 1.7176815 0.98557705
3.6030378 1.7213781 0.98009962
3.7230377 1.7643704 0.9805398
3.6030378 1.8505757 0.98763096
0.24303818 1.8969867 0.98556495
0.0030384064 2.0355227 0.98188907
3.6030378 2.0675535 0.98764527
3.6030378 2.1170936 0.9860546
0.0030384064 2.2070141 0.98615122
3.6030376 2.2335064 0.98093617
0.0030384064 2.2535541 0.98790896
0.0030384064 2.2860317 0.98783898
0.24303816 2.4844708 0.98905557
3.6030378 2.5284886 0.98109913
0.0030384064 2.6380036 0.98258871
3.6030378 2.8915174 0.9803921
3.6030378 2.939765 0.98055637
3.6030378 2.9875393 0.98789012
0.71926421 3.2361355 0.98858452
1.3499367 3.2361355 0.98660707
1.3567923 3.2361355 0.98018944
1.4565226 3.2361355 0.98030579
2.1647706 3.2361355 0.98699808
2.2108643 3.2361355 0.98608005
2.4120829 3.2361355 0.98056328
7.2526512 3.353394 0.9845975
2.6830378 3.3639808 0.98702943
2.6830378 3.4055769 0.9858731
0.24771117 3.4761353 0.9809981
0.54534805 3.4761353 0.98107326
1.2725699 3.4761353 0.98322153
1.5219188 3.4761353 0.98975486
1.9020091 3.4761353 0.98368996
2.4703624 3.4761353 0.98598623
3.6030378 3.4873269 0.9860974
0.0030384064 3.4920509 0.98765045
3.6396337 3.5561352 0.98945737
7.2526512 3.6604819 0.98790467
0.0030384064 3.7914655 0.98773026
0.0030384064 3.8583043 0.98715889
0.24303818 3.853487 0.98438776
7.2526512 3.9239058 0.98937511
7.2526512 4.0869508 0.98042035
0.0030384064 4.3076758 0.98167348
0.24303818 4.4076166 0.98562354
7.2526517 4.4564209 0.98287642
7.2526512 4.7519355 0.98452628
0.0030384064 4.8725543 0.98635405
7.0126514 4.8707881 0.98212922
7.2526512 4.8782187 0.98210156
7.0126514 4.9125881 0.98495102
4.7472496 4.9361343 0.9842155
5.6168842 4.9361343 0.98757869
5.7031469 4.9361343 0.98980832
6.8639684 4.9361343 0.98041856
7.0126514 5.0012555 0.98888284
7.0126514 5.0132318 0.9803195
3.7248108 5.0561347 0.98136795
4.591228 5.0561352 0.98083919
5.1440372 5.0561352 0.98538888
5.2842731 5.0561352 0.98512661
5.3408995 5.0561352 0.9822982
5.8700366 5.0561352 0.98324126
6.9991755 5.0561352 0.98227
3.7230377 5.1107874 0.98532534
3.7230377 5.15836 0.98536128
7.0126514 5.1671066 0.98439717
7.2526512 5.1904645 0.98385507
3.7230377 5.3033733 0.98230302
0.0030384064 5.5398655 0.98261833
7.0126514 5.6499033 0.98375607
3.6030378 5.6859584 0.98029482
3.7230375 5.9279251 0.98624116
7.2526517 5.9326401 0.98858351
2.5030384 5.9622669 0.98231816
3.6030378 5.9636683 0.98570448
7.2526512 6.0595784 0.98871088
7.0126514 6.2078295 0.98168641
0.24303818 6.3341522 0.98955452
2.2630377 6.3303051 0.98319501
0.24303818 6.3766823 0.98658347
2.2630377 6.4001503 0.9886691
0.24303818 6.4469609 0.98442608
2.2630377 6.4984303 0.98744941
2.4137709 6.5561357 0.9826951
0.24303818 6.6977186 0.9867847
0.24303818 6.7003241 0.98535538
0.24303818 6.7919898 0.98605639
3.6030378 6.8979654 0.9862017
3.7230377 6.9173808 0.98043126
3.6030378 7.130877 0.9845475
3.6030378 7.3426886 0.98173106
3.6030378 7.9273882 0.98582715
3.7230377 7.9409451 0.98825008
0.38622409 8.0611343 0.98628581
0.69426167 8.0611343 0.98852754
0.8807689 8.0611343 0.9874934
2.2347984 8.0611343 0.98062581
2.4201372 8.0611343 0.98608017
2.4466758 8.0611343 0.98081571
0.24303818 8.1178093 0.98863631
2.3880377 8.1677628 0.98520035
1.3376839 8.176136 0.98252982
1.4156415 8.176136 0.98326129
1.9549429 8.176136 0.98993683
2.0910628 8.176136 0.9842037
3.7230377 8.2123718 0.98771614
2.5030384 8.2581978 0.98669422
2.5030384 8.318078 0.98318326
3.7230377 8.3474493 0.98120505
0.71649981 8.426136 0.98108226
1.0004412 8.426136 0.98320252
1.0753732 8.426136 0.98114735
1.2639774 8.426136 0.98169792
0.24303818 8.4921837 0.98582971
0.86760241 8.5461349 0.98117352
1.5827068 8.5461349 0.9874748
2.1341705 8.5461349 0.98513138
7.2526512 8.551075 0.98141915
2.4828942 8.6261349 0.98923576
3.6030378 8.6265011 0.9896028
0.0030384064 8.7152081 0.98368806
3.6030378 8.7374668 0.98577654
3.7230377 8.8371239 0.98492932
3.6030378 8.8665075 0.98561466
0.0030384064 9.002944 0.982777
3.6030378 9.2444201 0.98576581
0.24303818 9.4463558 0.98988664
7.6559377 9.4561348 0.98405623
7.9934855 9.4561348 0.98434508
3.8022923 9.5161343 0.98648274
3.9842031 9.5161343 0.98945308
3.9991767 9.5161343 0.98093951
4.0793247 9.5161343 0.98727715
4.7244368 9.5161343 0.98175025
4.9703302 9.5161343 0.98751354
5.348381 9.5161343 0.98097926
5.427309 9.5161343 0.98604494
5.7253976 9.5161343 0.98645169
5.9082451 9.5161343 0.98790896
6.0686555 9.5161343 0.98571777
6.1348157 9.5161343 0.98355407
6.1866527 9.5161343 0.98294097
6.393333 9.5161343 0.9868871
6.4254551 9.5161343 0.98241848
6.5984859 9.5161343 0.98945081
6.757163 9.5161343 0.9805696
6.8710704 9.5161343 0.98393553
2.3880377 9.5305767 0.98340136
3.7230377 9.5325556 0.98798877
7.0126514 9.5350428 0.98795515
7.0126514 9.5781002 0.98083878
3.7230377 9.5880575 0.98954523
3.8284552 9.6361351 0.98503107
3.8949914 9.6361351 0.98120844
3.900013 9.6361351 0.98650819
4.2020597 9.6361351 0.98195899
4.5696545 9.6361351 0.9846648
4.9691463 9.6361351 0.98658037
5.0983968 9.6361351 0.98679256
5.2814946 9.6361351 0.98346841
5.4077873 9.6361351 0.98026711
5.4658804 9.6361351 0.98733234
5.71211 9.6361351 0.9805932
5.8723483 9.6361351 0.98314369
6.0411305 9.6361351 0.98752475
6.5826793 9.6361351 0.98173189
6.598412 9.6361351 0.98366046
6.6195116 9.6361351 0.98754489
6.692615 9.6361351 0.9864074
0.34686965 9.6461353 0.9895128
1.5327502 9.6461353 0.98188835
1.841285 9.6461353 0.98837221
2.4750767 9.6461353 0.98140818
7.1732254 9.6961346 0.98668987
7.343215 9.6961346 0.98380619
8.0533352 9.6961346 0.98377991
7.8579245 9.7680607 0.98874587
0.24303818 9.8190308 0.98200572
3.5030384 9.858654 0.98089993
0.40082514 9.8861351 0.9887858
0.5824343 9.8861351 0.98162293
0.6682781 9.8861351 0.9878251
1.1139351 9.8861351 0.9849084
1.1907114 9.8861351 0.98764503
1.942102 9.8861351 0.98985326
2.428051 9.8861351 0.98710245
7.8482008 9.9389439 0.98600912
3.6030378 10.023151 0.98642862
0.24303818 10.055797 0.98993003
0.0030384064 10.17943 0.98790491
8.0739946 10.195454 0.98935723
7.9288492 10.376245 0.98744577
7.9992704 10.380253 0.98602504
0.0030384064 10.539637 0.98308718
0.24303819 10.783339 0.98243946
0.0030384064 10.953165 0.98381108
0.0030384064 11.099743 0.98197162
0.0030384064 11.345316 0.98642302
0.0030384064 11.461559 0.98226875
3.6030378 11.475323 0.98899752
0.0030384064 11.590923 0.98471951
7.7506609 11.653181 0.98692954
0.24303818 11.671699 0.98371118
3.7230377 11.710207 0.98055881
3.6030378 11.830509 0.98560858
0.0030384064 11.96954 0.98434138
4.5044537 12.066135 0.98347682
4.6692214 12.066135 0.9859423
5.3613667 12.066135 0.98234683
5.6125937 12.066135 0.98487049
5.6703353 12.066135 0.98462594
5.9556084 12.066135 0.98700535
6.4631228 12.066135 0.9817757
7.018239 12.066135 0.98065591
7.6635666 12.066135 0.98867321
7.8146462 12.111881 0.98688895
7.7210431 12.173691 0.98213232
4.6315751 12.186134 0.98013455
4.7524905 12.186134 0.98792577
4.8710523 12.186134 0.9880805
5.1199389 12.186134 0.98120356
5.7664704 12.186134 0.98250151
5.8871942 12.186134 0.98824668
6.0842829 12.186134 0.98380923
6.1857138 12.186134 0.98108917
6.2209096 12.186134 0.98105955
7.2328277 12.186134 0.98974407
7.2424431 12.186134 0.98086464
7.5064969 12.186134 0.98031175
7.5198121 12.186134 0.98373711
7.9586854 12.221958 0.9808529
0.0030384064 12.238222 0.9889136
0.24303818 12.27462 0.98400331
7.9547625 12.290901 0.98187083
7.7030849 12.489326 0.98538208
7.9429064 12.499271 0.98370057
0.0030384064 12.572984 0.98335594
7.9365683 12.610667 0.98875892
7.6932201 12.662694 0.98347145
7.9215527 12.874565 0.98437452
7.9171066 12.9527 0.98679584
7.9080544 13.111795 0.98748827
7.9030008 13.200605 0.98170429
7.8999219 13.254713 0.98336792
0.24303819 13.271009 0.98524708
0.24303818 13.634796 0.98634839
7.8631535 13.900911 0.98920012
7.6208124 13.935228 0.98958308
0.24303818 13.980086 0.98103338
7.8533225 14.073693 0.98007774
0.0030384064 14.08298 0.98285306
0.89029694 14.206137 0.98308516
1.1480799 14.206137 0.98283958
1.5018214 14.206137 0.98404098
5.5560122 14.206137 0.98042071
5.8389049 14.206137 0.98800826
6.2574654 14.206137 0.98335606
6.7851 14.206137 0.98167014
7.8428226 14.258223 0.98789686
0.0030384064 14.298806 0.98136604
7.8374863 14.35201 0.98529017
0.24303818 14.38509 0.98888052
0.030460585 14.446135 0.98227751
0.055549499 14.446135 0.98960847
1.0875611 14.446135 0.98837698
1.1244923 14.446135 0.98809302
1.1619214 14.446134 0.98942506
2.4974365 14.446135 0.98084843
3.5110762 14.446135 0.98674732
4.0173559 14.446135 0.98768497
5.7481308 14.446135 0.98650372
5.8830833 14.446135 0.98018163
6.4666834 14.446135 0.9832176
6.9348512 14.446135 0.98617709
7.0944543 14.446135 0.98594344
7.5619683 14.446135 0.98109168
2.2350078 0.0061359406 0.99685615
2.5340388 0.0061359406 0.99771476
2.6704328 0.0061359406 0.99744618
3.499346 0.0061359406 0.99342203
3.5893002 0.0061359406 0.99841106
3.6009989 0.0061359406 0.99681771
3.8321199 0.0061359406 0.99374533
3.9352863 0.0061359406 0.99010396
4.3157377 0.0061359406 0.99340844
4.4931235 0.0061359406 0.99971747
4.9286628 0.0061359406 0.99575353
7.1881733 0.0061359406 0.99417728
6.7326508 0.025554501 0.99311048
2.1730375 0.079902053 0.99562025
5.7026501 0.080492742 0.99678671
0.24303818 0.10460818 0.99284148
6.7326508 0.15243256 0.99658579
7.2526512 0.20762762 0.99802303
7.0126514 0.2271229 0.99380523
0.67064977 0.24613571 0.99815929
1.0228053 0.24613571 0.99303287
2.7166021 0.2461357 0.99927038
2.9825077 0.24613571 0.99474585
3.6387854 0.24613571 0.99482226
4.2966485 0.24613571 0.99046934
4.6811404 0.24613571 0.99691248
5.0392618 0.24613571 0.99422359
3.7230377 0.29290357 0.99048507
7.0126514 0.32549673 0.99962354
0.0030384064 0.66976345 0.99516791
3.7230377 0.81680822 0.9960562
0.24303818 0.92031682 0.99792182
3.7230377 1.0065014 0.99261308
7.0126514 1.0371863 0.99341679
7.2526512 1.0378994 0.99406672
7.2526512 1.0731949 0.99853265
3.6030378 1.0803119 0.99983311
0.24303818 1.0922409 0.99093962
3.6030378 1.0924568 0.9975906
0.0030384064 1.1598213 0.99713564
0.24303818 1.1568187 0.9922058
7.2526512 1.1535239 0.99635059
3.6030378 1.4888512 0.99876958
0.24303818 1.6775618 0.99421531
3.7230377 1.7009307 0.9912048
3.6030378 1.7709277 0.99333036
0.24303818 1.8689626 0.99278796
0.0030384064 2.0623186 0.99442387
0.0030384064 2.0879512 0.99804622
0.0030384064 2.1185732 0.9979797
0.0030384064 2.2502565 0.99865639
0.24303818 2.2917891 0.99240607
0.24303818 2.5536785 0.99638426
0.0030384064 2.5980434 0.99158043
3.7230377 2.6585326 0.99300361
3.7230377 2.667074 0.99331629
3.6030378 2.8940003 0.99869645
0.0030384064 3.1827857 0.99459136
0.24303818 3.2176042 0.99428296
0.0030384064 3.2208743 0.99113357
0.70414329 3.2361355 0.99552113
1.049876 3.2361355 0.99639606
1.4502262 3.2361355 0.9976269
3.4530382 3.2977629 0.99903697
3.4530382 3.303386 0.99982607
3.6030378 3.3054774 0.99216318
0.24303818 3.4218569 0.99114025
3.4530382 3.4481788 0.99911302
7.0126519 3.4540663 0.99370062
0.24303818 3.4716883 0.9942503
0.67575794 3.4761353 0.99392039
0.86837435 3.4761353 0.99835682
0.93453157 3.4761353 0.9966169
1.2652137 3.4761353 0.99033797
1.5403168 3.4761353 0.99968576
1.6358494 3.4761353 0.99273396
1.8384312 3.4761353 0.9971751
2.6292281 3.4761353 0.99034911
0.24303818 3.8777504 0.9928568
7.2526512 4.3514433 0.99953741
7.0126514 4.4137936 0.99971491
7.0126514 4.4419904 0.99351621
0.24303818 4.6143756 0.99542105
0.24303818 4.642971 0.9941411
7.2526512 4.6448445 0.99584687
3.6030378 4.7448592 0.99348098
3.7230377 4.747345 0.99203295
7.2526512 4.7985597 0.99245268
4.6499481 4.9361343 0.99656236
5.0113478 4.9361343 0.99012899
5.2383647 4.9361343 0.99922955
5.8940783 4.9361343 0.99689448
3.6030378 4.9610949 0.99871409
0.24303818 4.9731374 0.99938077
3.7230377 4.9775567 0.99523342
7.2526512 4.9934187 0.99579012
3.812726 5.0561352 0.99544871
3.8919394 5.0561352 0.99249613
3.9597201 5.0561352 0.99264455
4.3778152 5.0561352 0.99334079
4.7054329 5.0561352 0.99342048
4.785861 5.0561352 0.99192494
5.5987768 5.0561352 0.99995017
5.9686069 5.0561352 0.99075246
5.9742312 5.0561352 0.99069756
0.24303818 5.1875095 0.9906795
7.0126514 5.2165365 0.99668545
7.0126514 5.2821631 0.99372691
0.0030384064 5.3416119 0.99504542
0.24303818 5.5052671 0.99153805
7.0126514 5.5109549 0.99737245
3.6030378 5.5295591 0.99359113
7.2526512 5.5364418 0.99080026
3.7230377 5.7373586 0.99185491
3.6030378 5.762114 0.99043798
0.24303818 5.8266501 0.99365771
7.0126514 5.8362484 0.9931426
0.0030384064 5.8891306 0.99449909
2.4719853 5.9561348 0.99568212
3.6030378 5.9690375 0.99057466
0.24303818 5.9986749 0.99687147
2.5030384 6.2068648 0.99944532
