# .PCD v0.7 - Point Cloud Data file format
VERSION 0.7
FIELDS x y z
SIZE 4 4 4
TYPE F F F
COUNT 1 1 1
WIDTH 1564
HEIGHT 1
VIEWPOINT 0 0 0 1 0 0 0
POINTS 1564
DATA ascii
0.64618635 0.00013923645 4.8403783
1.123415 0.00013923645 4.8492403
2.260792 0.00013923645 4.8426442
2.5539041 0.00013923645 4.8442459
3.0233989 0.00013923645 4.8474684
3.4197907 0.00013923645 4.8487077
3.9179308 0.00013923645 4.84904
4.2720523 0.00013923645 4.849607
4.3605895 0.00013923645 4.8409128
4.4943542 0.00013923645 4.8450975
4.7014098 0.00013923645 4.8478098
4.7746768 0.00013923645 4.84902
4.8422289 0.00013923645 4.8447981
5.3283529 0.00013923645 4.8400316
5.6498079 0.00013923645 4.8474545
3.8146973e-05 0.062119983 4.8406878
2.1700373 0.088208146 4.8493729
1.1400375 0.17462432 4.8449488
0.24003792 0.22547464 4.8421063
0.47324276 0.24013901 4.8482537
3.8087516 0.24013901 4.8474212
4.036294 0.24013901 4.8408041
4.0954819 0.24013901 4.848258
4.5115752 0.24013901 4.8408685
4.6124516 0.24013901 4.8469052
5.6299725 0.24013901 4.8425584
0.24003792 0.25724912 4.8455067
0.24003792 0.31069085 4.8424964
6.8896503 0.32536209 4.84655
3.8146973e-05 0.33563179 4.8481202
3.8100376 0.57505608 4.844945
6.6496506 0.66075921 4.8436832
3.8146973e-05 0.7401911 4.8458509
6.6496506 0.83930761 4.8433309
0.24003792 0.84645367 4.842339
6.8896503 0.84733862 4.8492579
6.8896503 0.97019517 4.8449321
3.8146973e-05 1.030036 4.8489709
3.9300375 1.0732996 4.8408966
6.6496506 1.0871128 4.8444176
0.24003792 1.2007236 4.8471289
3.8100376 1.5609937 4.848351
3.8146973e-05 1.5738162 4.8434176
0.24003792 1.6294063 4.8446746
3.9300375 1.6372869 4.849267
3.8100376 1.7500813 4.8471489
3.8100376 1.8177716 4.8499885
3.8146973e-05 1.8439838 4.8424144
0.2400379 2.0409272 4.8420801
3.8100376 2.1959465 4.8472481
3.8146973e-05 2.4154029 4.8481026
3.9300375 2.5438094 4.8458614
0.24003792 2.5648837 4.8462405
3.8146973e-05 2.6097813 4.8403645
3.9300375 2.824317 4.8454909
0.48500639 2.8925838 4.8404608
0.63876098 2.8925838 4.8449612
0.65968138 2.8925838 4.8401031
0.76973581 2.8925838 4.8440795
1.8114877 2.8925838 4.8408585
2.4439843 2.8925838 4.8471513
2.50142 2.8925838 4.840405
2.6480148 2.8925838 4.8496709
2.6800375 2.9570551 4.8445306
0.2400379 3.0021071 4.8450885
3.8146973e-05 3.0385132 4.8448281
0.2400379 3.0385835 4.8440828
3.8100376 3.0331006 4.8424168
3.8146973e-05 3.0487926 4.8443704
2.6800375 3.0798225 4.8426232
2.6800375 3.1254318 4.8472409
1.5675298 3.1325836 4.8415365
2.5708652 3.1325836 4.8452859
3.4929419 3.1325836 4.8401694
6.7276587 3.2001381 4.848824
6.6496506 3.2556212 4.8460546
6.6496506 3.3880992 4.8473372
3.8100376 3.4827433 4.8427858
0.24003792 3.5603058 4.8471265
0.24003792 3.634326 4.8414435
6.6496506 3.6975899 4.8481684
6.8896503 3.7228353 4.8453584
0.24003792 3.8498938 4.8418512
6.8896503 4.2725782 4.8481894
6.6496506 4.2811384 4.8435602
3.8146973e-05 4.3298583 4.8478556
3.8282576 4.4501381 4.8427672
0.24003792 4.6242428 4.8442869
0.24003793 4.6636543 4.8432655
6.6496506 4.7060781 4.8431683
0.24003792 4.7151041 4.8487177
3.9300375 4.8031468 4.8423295
4.9648428 4.8001385 4.8400335
5.0326414 4.8001385 4.8407197
6.1335955 4.8001385 4.8409877
6.1542115 4.8001385 4.8486094
6.2191501 4.8001385 4.8476348
6.3045273 4.8001385 4.8476186
6.3827305 4.8001385 4.8418689
3.8146973e-05 4.8134255 4.8471255
6.6496506 4.8390622 4.8493462
3.8100376 4.8769732 4.8498449
3.8100376 4.9024963 4.8437028
4.8243299 4.9201393 4.8490195
6.1601882 4.9201393 4.8486795
6.3991313 4.9201393 4.8444824
6.465498 4.9201393 4.8438568
0.24003792 4.9636712 4.8440251
0.24003792 5.2369275 4.8452406
3.8100376 5.3989725 4.8477821
0.24003792 5.4413133 4.8427787
3.9300375 5.5097399 4.8408861
3.8100379 5.5298238 4.8476477
3.8146973e-05 5.5588574 4.8480339
6.6496506 5.6751313 4.8436537
0.24003792 5.8020473 4.8423171
6.6496506 5.9228787 4.846756
2.2652531 5.9501381 4.8460798
3.8146973e-05 5.9700136 4.8436403
0.24003792 6.1549211 4.8496981
2.5000381 6.1506548 4.846806
6.8896503 6.1526756 4.842061
6.6496506 6.1884794 4.8492374
0.24003792 6.2659492 4.8427749
3.8146973e-05 6.2874947 4.8482008
2.5000381 6.2960587 4.8413963
6.8896503 6.4484634 4.8467674
6.8896503 6.4687796 4.8449597
6.7808504 6.5101376 4.840251
6.800509 6.5101376 4.8419886
2.4258618 6.5501385 4.8476176
0.24003792 6.7060461 4.8458023
0.1952074 6.8751392 4.8466873
3.8128104 6.8701382 4.8427887
3.8100376 7.6842351 4.8405161
0.59726542 8.0551376 4.8456836
1.0191263 8.0551376 4.8410025
1.6834968 8.0551376 4.8457737
2.2823021 8.0551376 4.8457022
0.43213034 8.1701393 4.8495774
1.0924555 8.1701393 4.8495135
1.6688024 8.1701393 4.8482118
3.8100376 8.1904116 4.8401322
0.53654903 8.4201393 4.844924
0.54230517 8.4201393 4.8418431
0.98099959 8.4201393 4.8447661
1.6395636 8.4201393 4.8466969
2.2816892 8.4201393 4.8486619
0.65965348 8.5401382 4.8460069
0.95582062 8.5401382 4.8407841
2.2041676 8.5401382 4.8439436
6.6496506 8.5435705 4.8404007
6.6496506 8.6155024 4.8477273
6.6496506 8.709136 4.8460951
3.8146973e-05 8.7680016 4.8493328
3.8146973e-05 8.8627949 4.8450737
6.6496506 8.8698092 4.849205
3.8100376 8.8992062 4.8435788
0.24003792 8.9026566 4.8479238
6.6496506 9.0004015 4.8467436
0.24003792 9.061573 4.8457322
6.8896503 9.1548805 4.8439178
6.8896503 9.1695042 4.8402791
3.8100376 9.3812771 4.8428679
7.1095467 9.4501381 4.8493438
7.3880587 9.4501381 4.8458271
7.4661226 9.4501381 4.8460217
7.5251341 9.4501381 4.8459458
7.7058039 9.4501381 4.8466625
3.8100376 9.4826212 4.8423176
3.9300375 9.5142584 4.845542
4.1886892 9.5101376 4.8495684
4.603725 9.5101376 4.8427691
4.7119961 9.5101376 4.8402033
4.7398734 9.5101376 4.8416672
5.0347018 9.5101376 4.8452177
5.1493368 9.5101376 4.8454742
5.2954988 9.5101376 4.8419895
5.3819532 9.5101376 4.8459363
5.5025778 9.5101376 4.843276
5.5394945 9.5101376 4.8420086
5.5835505 9.5101376 4.8423538
5.669991 9.5101376 4.8488274
5.7495322 9.5101376 4.8476648
5.8644514 9.5101376 4.8474417
6.2468247 9.5101376 4.8472948
6.2916212 9.5101376 4.8442669
6.4326472 9.5101376 4.8439918
6.5637283 9.5101376 4.8424306
6.6496506 9.5228281 4.8472185
8.1079454 9.5400324 4.8484507
2.3850374 9.5718756 4.8426552
0.24003792 9.5922995 4.8478441
3.9300375 9.6009531 4.8429255
4.4428568 9.6301384 4.8474507
4.7353544 9.6301384 4.8467031
5.0466919 9.6301384 4.8441753
5.0680094 9.6301384 4.8493814
5.1580791 9.6301384 4.8425894
5.2511396 9.6301384 4.8482733
5.6871052 9.6301384 4.8424411
6.2692661 9.6301384 4.8436298
0.63284373 9.6401386 4.8408251
1.284464 9.6401386 4.8418331
1.4536604 9.6401386 4.8409853
7.0767217 9.6901379 4.8428988
7.0910125 9.6901379 4.8443222
7.3058958 9.6901379 4.8412485
7.6989489 9.6901379 4.8426681
7.9244123 9.6901379 4.8462329
3.8146973e-05 9.717247 4.8445358
3.8100376 9.7156963 4.8405476
3.5000381 9.7658939 4.8442574
3.5000381 9.7870111 4.8458648
3.9300375 9.8325405 4.8446088
0.4597379 9.8801384 4.8491635
0.51621366 9.8801384 4.8442097
0.52965796 9.8801384 4.8438206
1.67 9.8801384 4.8460827
3.7353477 9.8801384 4.8444462
3.9300375 9.8951559 4.8477473
3.9300375 10.211138 4.8441954
3.9300375 10.285343 4.8415928
3.8374009 10.290138 4.8488054
0.24003792 10.543421 4.8433542
0.24003792 10.783176 4.8485661
3.8146973e-05 11.0834 4.8417816
3.8146973e-05 11.440536 4.8469496
3.6000376 11.504084 4.8485999
7.9944539 11.534613 4.8415308
7.9939065 11.544231 4.8404622
3.7200375 11.731182 4.8425169
7.7365026 11.843292 4.8467259
7.7345266 11.878021 4.8478932
7.8760223 12.031733 4.8468332
4.766428 12.060139 4.8404813
5.1127691 12.060139 4.8444161
5.4180088 12.060139 4.8436623
5.7867174 12.060139 4.8463511
6.7974625 12.060139 4.842433
6.8710184 12.060139 4.8416162
7.7191496 12.148239 4.8423882
3.749522 12.180138 4.8460503
3.9195051 12.180138 4.8409071
4.1793132 12.180138 4.8439488
4.2610021 12.180138 4.84375
4.775507 12.180138 4.8423138
4.8928366 12.180138 4.8425508
5.8563156 12.180138 4.8461561
5.8713837 12.180138 4.8489485
6.1037908 12.180138 4.8421826
6.6812224 12.180138 4.8455515
7.7152925 12.216059 4.8464575
3.6000376 12.258121 4.8457203
7.7121134 12.271927 4.8409371
3.7200375 12.368044 4.8422327
7.9440794 12.419937 4.8440113
7.7028074 12.435473 4.8490663
7.9315329 12.640432 4.8458877
7.9290428 12.684202 4.8429704
0.24003792 12.731459 4.8493915
7.6851254 12.746225 4.8408461
3.8146973e-05 12.852032 4.8475757
7.6647611 13.104115 4.8470602
7.8991423 13.209688 4.843719
3.8146973e-05 13.258245 4.8460221
0.24003792 13.321811 4.8489518
3.8146973e-05 13.566386 4.8436236
7.8730388 13.668457 4.8421078
7.8680573 13.756008 4.8427467
7.8613997 13.873011 4.847538
0.24003792 13.960393 4.8479295
7.8505654 14.063415 4.8406081
5.5950899 14.20014 4.8492942
6.1104908 14.20014 4.8436141
6.7416902 14.20014 4.843091
7.3359318 14.200141 4.8489151
4.4150381 14.219887 4.8452311
5.1450386 14.215151 4.8467717
7.8322644 14.385053 4.8452644
0.058395579 14.440138 4.8495226
0.28322634 14.440138 4.84342
3.5825453 14.440138 4.8412619
3.9542325 14.440138 4.8412728
4.0979981 14.440138 4.8464589
5.2651229 14.440138 4.8489108
5.7608829 14.440138 4.8426709
6.0265131 14.440138 4.8463087
6.3441477 14.440138 4.8453979
6.5891085 14.440138 4.8428645
6.698915 14.440138 4.8405075
6.9808493 14.440138 4.8462982
7.4524269 14.440138 4.8408642
0.31675658 0.00013923645 4.8561759
0.62580776 0.00013923645 4.8578672
2.5741818 0.00013923645 4.8591776
3.1533513 0.00013923645 4.8516216
3.2134008 0.00013923645 4.8575611
3.4602451 0.00013923645 4.8590703
3.8207021 0.00013923645 4.8545547
4.5266528 0.00013923645 4.8580198
4.7409072 0.00013923645 4.8541956
4.9811788 0.00013923645 4.8552885
5.174531 0.00013923645 4.8576694
5.534162 0.00013923645 4.8561387
3.8146973e-05 0.027194679 4.852221
2.1700373 0.040072583 4.852293
0.24003792 0.06038563 4.8512058
1.1400375 0.065144353 4.8566976
3.8146973e-05 0.10860647 4.8597174
1.1400375 0.12243421 4.8531818
2.1700373 0.13002707 4.8517213
1.1400375 0.18818058 4.8515167
6.7296505 0.19909573 4.8570952
1.1400375 0.2251814 4.8585277
5.6996498 0.23475951 4.8540211
0.3879683 0.24013901 4.8520236
0.56421924 0.24013901 4.8518696
0.69018543 0.24013901 4.8529143
0.77618009 0.24013901 4.8581357
3.1838634 0.24013901 4.8513117
3.3871973 0.24013901 4.8592434
3.7249696 0.24013901 4.8580589
3.8470256 0.24013901 4.8567753
4.618504 0.24013901 4.8569779
5.2484121 0.24013901 4.8580093
5.3486376 0.24013901 4.8549552
5.4125381 0.24013902 4.8515868
5.4914751 0.24013902 4.8566875
6.8896503 0.2728014 4.855689
3.9300375 0.30407763 4.8570995
3.8146973e-05 0.41343626 4.8505573
3.8146973e-05 0.4849748 4.8538637
3.8100376 0.54900807 4.8513732
3.9300375 0.54806876 4.852695
6.8896503 0.70603359 4.8509374
6.6496506 0.71959472 4.8579879
3.8146973e-05 0.82599813 4.8577709
3.9300375 0.90200746 4.8549261
3.8100376 1.0195922 4.8590426
3.9300375 1.0797119 4.8598471
3.8146973e-05 1.085795 4.8539395
3.9300375 1.1163846 4.8591976
3.8100376 1.3757113 4.8571835
3.8146973e-05 1.6702493 4.8586984
3.8146973e-05 1.7842687 4.8524837
3.8146973e-05 1.8385894 4.8577089
3.8146973e-05 1.8806568 4.8501697
3.8146973e-05 1.9445722 4.8509488
3.8100376 1.9577205 4.8570004
3.8146973e-05 2.0821331 4.8523927
0.24003792 2.1043653 4.8579702
0.24003792 2.2999413 4.8533158
3.8146973e-05 2.3108277 4.8566771
3.8100376 2.4083655 4.8558264
0.24003792 2.6319718 4.8548708
0.24003792 2.7307694 4.8580761
3.8146973e-05 2.8441062 4.852663
1.4253824 2.8925838 4.8505197
1.8515514 2.8925838 4.8565936
2.1585543 2.8925836 4.8527255
3.9300375 2.9060071 4.8562665
0.24003792 2.9401081 4.851285
3.8100376 2.9400415 4.8572602
3.450038 3.0068917 4.8547673
3.9300375 3.0117745 4.8538885
0.24003792 3.0401037 4.8545837
3.8100376 3.0421712 4.8510628
2.6800375 3.074111 4.8555813
3.450038 3.0908134 4.8541789
1.0542879 3.1325836 4.8530397
1.1220971 3.1325834 4.8568525
1.7924705 3.1325836 4.8537116
2.0848937 3.1325836 4.8586578
6.6496506 3.2319763 4.8514781
3.8146973e-05 3.2427745 4.856369
3.8146973e-05 3.3959913 4.8511105
0.24003792 3.4265153 4.8559189
3.9300375 3.4743552 4.8523574
3.8146973e-05 3.7035012 4.8587008
6.8896503 3.7257531 4.8513422
0.24003793 3.9325082 4.8551645
6.6496506 3.9934373 4.8550649
3.8146973e-05 4.3061638 4.8593559
0.24003792 4.4006062 4.853097
6.6496501 4.4186764 4.8507199
3.8975959 4.4501381 4.8525982
6.8896503 4.4821877 4.8597236
3.8100376 4.5833149 4.8584495
0.24003792 4.7484622 4.8571453
0.2400379 4.7675028 4.8537502
4.0734172 4.8001385 4.8504734
4.2641244 4.8001385 4.8583088
4.3140306 4.8001385 4.8589768
4.8543835 4.8001385 4.8593311
4.9270844 4.8001385 4.8502159
5.9077187 4.8001385 4.8594952
6.3324585 4.8001385 4.8533688
6.6139841 4.8001385 4.8554883
6.6335545 4.8001385 4.8549142
3.9300377 4.8668222 4.8593531
6.8896503 4.8767719 4.8501048
6.6496506 4.9010777 4.8592463
4.351284 4.9201393 4.8563299
4.9578347 4.9201393 4.8512058
5.3487377 4.9201393 4.8580399
6.0710573 4.9201393 4.8546848
6.1760564 4.9201393 4.8522506
6.406631 4.9201393 4.8530121
0.24003792 4.9687595 4.8520241
0.24003792 4.9925523 4.8543854
6.8896503 5.2232294 4.8529487
3.8100376 5.252346 4.8577433
6.6496506 5.2928286 4.8514843
0.24003792 5.3758793 4.8595924
3.8146973e-05 5.3836985 4.8557291
6.6496506 5.4712443 4.859251
6.8896503 5.4910545 4.8541899
3.9300375 5.6379867 4.8527198
3.8100376 5.8203874 4.8509293
3.8100376 5.8674083 4.8575373
6.8896503 5.9637508 4.8517113
0.24003792 6.0043893 4.8549151
6.8896503 6.0624323 4.8517828
6.8896503 6.086688 4.8529148
2.2600374 6.1343565 4.8524885
6.6496506 6.1663647 4.8526793
6.8896503 6.3384209 4.8505168
2.5000381 6.3871498 4.8532319
3.8146973e-05 6.4002209 4.8535528
2.2600374 6.4057193 4.8502765
0.24003792 6.4437499 4.8565917
3.8146973e-05 6.5294151 4.8582525
2.3987207 6.5501385 4.8588524
3.8256779 6.8701382 4.8501363
3.8100376 7.021203 4.8567977
3.8100376 7.093636 4.8579741
3.8100376 7.139123 4.851779
3.9300375 7.4738798 4.8520794
3.9300375 7.6128654 4.8530264
3.8100376 7.7035313 4.8521538
3.8100376 7.8585982 4.8535714
0.78524512 8.0551376 4.8555017
1.1117777 8.0551376 4.8539982
1.9303613 8.0551376 4.8557873
2.3178172 8.0551376 4.8531833
2.3850374 8.0664244 4.8588839
2.3850374 8.0919857 4.8534756
2.5000381 8.0989227 4.8592181
3.8146973e-05 8.121685 4.8569436
0.92647797 8.1701393 4.8530908
1.0394443 8.1701393 4.8523355
1.161324 8.1701393 4.853013
1.2153594 8.1701393 4.8566914
1.5787033 8.1701393 4.8554997
1.8252957 8.1701393 4.8506899
1.9647231 8.1701393 4.8539777
2.1489217 8.1701393 4.8599157
2.1678262 8.1701393 4.8586469
0.72412306 8.4201393 4.8501492
0.98152852 8.4201393 4.857892
1.3606106 8.4201393 4.8528614
1.4318961 8.4201393 4.8533244
1.4818218 8.4201393 4.8516588
2.223455 8.4201393 4.8552389
2.2433929 8.4201393 4.8552389
3.8100376 8.4518995 4.8540578
3.8146973e-05 8.4929047 4.8571
2.5000381 8.5213995 4.858943
0.67918873 8.5401382 4.8599515
1.1389893 8.5401382 4.8568373
1.602419 8.5401382 4.8503413
1.7233986 8.5401382 4.8560748
1.8719975 8.5401382 4.8546309
2.1217752 8.5401382 4.8507948
2.2017605 8.5401382 4.8505216
2.3368478 8.5401382 4.8526692
2.3850374 8.5849962 4.8576031
2.4458559 8.6201382 4.8531561
3.9300375 8.936821 4.8519926
0.24003793 8.9993782 4.8542643
3.8100376 9.0327454 4.8568497
3.8100376 9.0564899 4.8551188
0.24003792 9.0872116 4.8580394
3.8100376 9.0837927 4.8504004
6.8896503 9.1116123 4.859098
6.6496506 9.1462498 4.8594203
3.8146973e-05 9.2687349 4.8576026
3.8100379 9.2712517 4.8548307
3.9300375 9.408329 4.8581409
2.5000381 9.4218998 4.8503218
7.5086274 9.4501381 4.8581243
7.8262887 9.4501381 4.8569326
7.9455867 9.4501381 4.8572588
8.0312548 9.4501381 4.8544235
4.2482738 9.5101376 4.8527956
4.6223855 9.5101376 4.856163
4.9780993 9.5101376 4.8531637
5.1383047 9.5101376 4.8576365
5.7324839 9.5101376 4.8570275
5.9338064 9.5101376 4.8576269
5.9631643 9.5101376 4.8541832
6.1481919 9.5101376 4.851769
6.1505613 9.5101376 4.8512912
6.6496506 9.515007 4.8509822
6.6496506 9.5746651 4.8533325
3.9300375 9.5820856 4.8599224
3.9300375 9.6271334 4.8511062
4.0009007 9.6301384 4.8520188
4.0852971 9.6301384 4.8501477
4.1061354 9.6301384 4.8507242
4.1893969 9.6301384 4.8570433
4.4116535 9.6301384 4.8538194
4.6667929 9.6301384 4.8526917
4.9281344 9.6301384 4.8525486
5.4984145 9.6301384 4.8593616
5.6712155 9.6301384 4.8549862
5.8848777 9.6301384 4.8545351
6.1305022 9.6301384 4.8523841
6.3119349 9.6301384 4.8502297
6.3211703 9.6301384 4.8558521
6.3898101 9.6301384 4.8582706
6.4868274 9.6301384 4.8573575
0.49409229 9.6401386 4.8510838
0.52948546 9.6401386 4.8509655
1.7304288 9.6401386 4.8527279
3.9300375 9.6624107 4.8555837
3.8146973e-05 9.6851559 4.850059
6.7636552 9.6901379 4.8574595
7.4805994 9.6901379 4.8564253
7.7447925 9.6901379 4.852901
3.8100376 9.7082872 4.8511081
0.24003792 9.7880478 4.8530321
3.9300375 9.849576 4.8568583
7.8490791 9.8647881 4.8503132
1.5933735 9.8801384 4.8567429
2.0329134 9.8801384 4.8531113
8.0752363 10.114907 4.8579731
3.8100376 10.192296 4.8579926
8.0706177 10.196087 4.8507271
0.24003792 10.328295 4.8511167
7.9286003 10.370405 4.8568888
0.24003792 10.577457 4.8537083
0.24003792 10.662895 4.8591566
0.24003792 10.730893 4.8507438
3.8146973e-05 11.154 4.8510199
0.24003792 11.285363 4.8571339
3.8146973e-05 11.310736 4.8591394
0.24003792 11.342253 4.8525691
7.7882757 11.394088 4.8535614
7.8137703 11.395538 4.859941
3.6198447 11.460138 4.853828
3.6252701 11.460138 4.8578391
3.6000376 11.492698 4.8596334
7.7489371 11.624748 4.85601
0.24003792 11.671671 4.8541431
3.7200375 12.024618 4.8507328
3.8146973e-05 12.040491 4.8508563
4.4363995 12.060139 4.8508172
4.8909383 12.060139 4.8580289
5.2506514 12.060139 4.8588786
6.0271978 12.060139 4.8509808
6.4665189 12.060139 4.8578877
6.7030497 12.060139 4.8538485
3.7200375 12.07905 4.8530126
3.6000376 12.110174 4.8500185
3.6000376 12.136677 4.8598309
3.7200375 12.159845 4.8523645
3.8146973e-05 12.173074 4.8579235
3.8923845 12.180138 4.8588638
4.0677543 12.180138 4.8556056
4.5489044 12.180138 4.851984
4.7046013 12.180138 4.8586884
5.7991209 12.180138 4.8551779
5.9846044 12.180138 4.8500504
6.0818043 12.180138 4.8516622
6.1481304 12.180138 4.8569183
6.2028918 12.180138 4.8555775
6.8237605 12.180138 4.8519144
6.8318462 12.180138 4.8511386
7.0125284 12.180138 4.8550444
7.2003889 12.180138 4.8590002
7.717061 12.184976 4.8543644
7.9496651 12.32176 4.8555164
3.8146973e-05 12.782326 4.8520536
3.6000376 12.796209 4.8538861
3.8146973e-05 12.883615 4.8550768
3.7200375 12.933803 4.856431
0.24003792 13.068329 4.8586588
7.643096 13.484871 4.8561087
3.8146973e-05 13.556482 4.8542337
3.8146973e-05 13.679496 4.8528891
3.8146973e-05 13.694005 4.8577719
7.850945 14.056746 4.8591051
0.37555715 14.20014 4.8516121
5.1813545 14.20014 4.8583736
6.1115813 14.20014 4.850709
6.7776055 14.20014 4.8559971
6.7816787 14.20014 4.858736
7.1437402 14.20014 4.8556261
0.44003773 14.216082 4.8564668
0.24003792 14.225374 4.8502784
0.24003792 14.277089 4.8560181
7.5983477 14.271299 4.8581424
7.8356423 14.325683 4.859375
3.5070224 14.440138 4.8597565
4.1130133 14.440138 4.8503566
5.3604441 14.440138 4.8586917
5.8882427 14.440138 4.8595819
6.1327658 14.440138 4.8517704
6.753983 14.440138 4.8540459
0.37792841 0.00013923645 4.86622
0.92196131 0.00013923645 4.8625531
2.2496591 0.00013923645 4.8664079
2.8113108 0.00013923645 4.8600068
3.506372 0.00013923645 4.8694654
4.410162 0.00013923645 4.8624926
5.1293063 0.00013923645 4.8627801
5.6076679 0.00013923645 4.8609548
5.642024 0.00013923645 4.8644862
6.771019 0.00013923645 4.8648524
0.24003792 0.15550306 4.867877
6.7296505 0.15961075 4.8664336
0.32563052 0.24013901 4.8669968
0.97238165 0.24013901 4.8696146
2.4515622 0.24013902 4.8604479
3.3231535 0.24013901 4.8678193
3.6467323 0.24013901 4.8641038
3.7332463 0.24013901 4.8671331
3.8691459 0.24013901 4.8619471
3.9613953 0.24013901 4.8670049
4.2637668 0.24013901 4.8676548
6.8896503 0.42461479 4.8653073
6.6496501 0.44686377 4.8670945
0.24003793 0.50636089 4.8614697
3.8146973e-05 0.65319395 4.8657289
3.8100376 0.6976884 4.8619127
6.8896503 0.69937718 4.863369
6.6496506 0.84062064 4.8690968
3.8100376 0.90565896 4.8625736
3.8100376 0.93137544 4.8669653
3.9300375 0.93116242 4.8692684
6.8896503 0.99582052 4.8678322
0.24003792 1.0438969 4.8642812
3.8100376 1.1106782 4.8614879
6.6496506 1.1426013 4.867476
0.24003792 1.2250254 4.8625684
0.24003792 1.2789056 4.8662663
3.9300375 1.3450319 4.8630962
3.9300375 1.3659099 4.8613739
3.8146973e-05 1.4071165 4.864037
0.24003792 1.4376847 4.8690553
3.9300375 1.7944239 4.8624783
3.8100376 1.9299589 4.86411
0.24003792 2.0160971 4.8648386
0.24003792 2.1568799 4.86797
0.24003792 2.1650479 4.8601356
3.8146973e-05 2.7068448 4.8695583
0.35502273 2.8925838 4.8643765
0.46903434 2.8925838 4.8691626
0.77487725 2.8925838 4.8623772
1.0648838 2.8925838 4.8648996
1.2878799 2.8925838 4.8659549
1.4132334 2.8925838 4.8660665
1.443794 2.8925838 4.8625183
1.5046569 2.8925838 4.8688493
1.9952612 2.8925838 4.8634629
2.3210001 2.8925838 4.8649316
2.6800375 3.0933483 4.8686938
1.0404381 3.1325836 4.8663535
1.1981041 3.1325836 4.8660359
1.5875598 3.1325836 4.8680248
1.7173102 3.1325836 4.8687859
1.9287496 3.1325836 4.8612452
2.236167 3.1325836 4.8601294
2.6201313 3.1325836 4.8609743
3.9300375 3.1427557 4.8600616
6.7335596 3.2001381 4.8666639
6.7873769 3.2001381 4.8693581
0.24003792 3.2543464 4.8620005
6.6496506 3.2952223 4.8671908
3.8146973e-05 3.4360139 4.8630896
0.24003792 3.4746294 4.863245
6.6496506 3.4892111 4.860158
3.8146973e-05 3.8124557 4.8681049
6.6496506 3.843116 4.8616438
6.6496506 4.0030751 4.8638535
0.24003792 4.083683 4.860713
6.6496506 4.1932864 4.8632221
0.24003792 4.274579 4.8665018
0.24003792 4.3206649 4.8626127
3.8146973e-05 4.3435483 4.8660269
3.8100376 4.457902 4.8688755
4.6427236 4.8001385 4.8649621
5.653307 4.8001385 4.8638263
6.2358942 4.8001385 4.8648858
6.4149079 4.8001385 4.86064
6.4339585 4.8001385 4.8676448
6.6496506 4.8773031 4.866497
3.9594352 4.9201393 4.8648362
4.136342 4.9201393 4.8625083
4.9126716 4.9201393 4.8609009
6.0525703 4.9201393 4.8667102
3.8146973e-05 4.9471364 4.8669925
0.24003792 5.0155873 4.8667765
6.8896503 5.0365238 4.8674183
6.6496506 5.138195 4.8647442
0.24003792 5.1595025 4.8646774
6.6496506 5.204525 4.8607578
3.8100376 5.2768793 4.8651009
3.8146973e-05 5.3245916 4.8698111
6.6496506 5.3558216 4.869216
0.24003792 5.4091215 4.8661795
6.8896503 5.4739208 4.8664532
6.8896503 5.5938673 4.865315
0.24003792 5.6281133 4.8661618
3.9300375 5.7416997 4.863996
3.8100376 5.8278966 4.8615055
6.8896503 5.938221 4.867424
0.24003792 5.9503365 4.8621197
3.8146973e-05 6.0093031 4.8681293
6.6496506 6.028605 4.8623991
0.24003792 6.3389587 4.8630753
0.24003792 6.3463216 4.8649516
2.5000381 6.4228649 4.8639188
0.24003792 6.4327545 4.8644114
6.8896503 6.4911289 4.8641949
6.8643517 6.5101376 4.863028
2.3803349 6.5501385 4.8642855
3.8914318 6.8701382 4.8641186
3.9205759 6.8701382 4.8640924
3.9300375 7.1909122 4.8665323
3.8100376 7.817112 4.8651266
3.9300375 7.887145 4.8654442
0.07500007 7.905138 4.869678
3.8146973e-05 7.918705 4.8676891
3.8100376 7.9459372 4.8699665
3.8146973e-05 7.9856791 4.8619385
1.4394606 8.0551376 4.8603683
1.4423009 8.0551376 4.868176
2.4147277 8.0551376 4.8655696
2.4832153 8.0551376 4.8676877
3.9300375 8.0515757 4.8654051
3.8146973e-05 8.0660696 4.8646779
0.24003792 8.0676403 4.866045
2.3850374 8.1005888 4.8634119
0.44682884 8.1701393 4.8617196
1.3014104 8.1701393 4.863534
1.4050449 8.1701393 4.8634958
1.7182473 8.1701393 4.8662248
1.7644532 8.1701393 4.8605099
1.8580316 8.1701393 4.86133
2.0739098 8.1701393 4.8615084
2.3660724 8.1701393 4.8688092
2.5000381 8.2056675 4.8648405
3.8100376 8.2041292 4.8655958
3.8100376 8.2629261 4.8696327
0.49564958 8.4201393 4.8666277
0.56999171 8.4201393 4.8665476
1.2547092 8.4201393 4.8648038
1.4656485 8.4201393 4.86413
1.8136628 8.4201393 4.8680015
0.32409418 8.5401382 4.8607101
0.53037751 8.5401382 4.8626375
0.79285753 8.5401382 4.8659506
1.941749 8.5401382 4.8677406
2.1290448 8.5401382 4.8691254
2.2786839 8.5401382 4.8662581
2.3850374 8.5975266 4.8638372
2.4415908 8.6201382 4.8650827
6.8896503 8.6209421 4.8647866
3.8100376 8.6469669 4.8607812
3.8146973e-05 8.7805157 4.8664541
3.9300375 8.7979183 4.8673453
3.8146973e-05 8.8074713 4.8679652
3.8100376 8.8411741 4.8628001
3.9300375 9.0131931 4.8616033
0.24003792 9.0316448 4.8690829
6.8896503 9.0794277 4.8666615
3.9300375 9.1336079 4.8643689
3.8100374 9.3745155 4.8642435
3.8146973e-05 9.40553 4.8601179
3.8146973e-05 9.4417276 4.867847
6.7587013 9.4501381 4.8682871
6.8804436 9.4501381 4.869307
7.5988407 9.4501381 4.8694067
7.7678242 9.4501381 4.8625951
7.7717137 9.4501381 4.8698144
7.8199706 9.4501381 4.8675165
7.9140463 9.4501381 4.8695588
8.0610132 9.4501381 4.8644152
8.0911417 9.4501381 4.8684158
3.9456165 9.5101376 4.8699117
4.0017366 9.5101376 4.8675656
4.1143341 9.5101376 4.8692622
4.2091179 9.5101376 4.8639822
4.2713509 9.5101376 4.8659925
4.331707 9.5101376 4.8607612
4.4502439 9.5101376 4.8642273
4.4667568 9.5101376 4.8625045
4.6685305 9.5101376 4.865694
4.6994591 9.5101376 4.8616757
4.8935223 9.5101376 4.8611407
5.2473817 9.5101376 4.8607106
5.2545023 9.5101376 4.8698883
5.3006182 9.5101376 4.8647137
5.436399 9.5101376 4.862927
5.5166569 9.5101376 4.8699846
6.2654991 9.5101376 4.8694196
6.4146729 9.5101376 4.8696151
6.5285125 9.5101376 4.8635073
3.9300375 9.5231781 4.8632102
6.6496506 9.5223761 4.8639998
0.24003792 9.5730047 4.8663225
3.9300375 9.5737314 4.8618574
3.8100376 9.6110163 4.8656888
6.6496506 9.6158485 4.8684959
3.9300375 9.6235723 4.8669229
3.999475 9.6301384 4.869144
4.0451412 9.6301384 4.864615
4.2683744 9.6301384 4.8683829
4.4040775 9.6301384 4.8678718
4.48809 9.6301384 4.8628883
4.5066547 9.6301384 4.8677206
4.6467891 9.6301384 4.8665495
4.7764258 9.6301384 4.8653674
5.1676068 9.6301384 4.8666692
5.3115768 9.6301384 4.862
5.3418388 9.6301384 4.8682718
5.385735 9.6301384 4.8677559
5.4368219 9.6301384 4.8614082
5.5828433 9.6301384 4.8628564
5.5960178 9.6301384 4.8648691
5.7734079 9.6301384 4.8667612
6.2001019 9.6301384 4.8628244
6.5089316 9.6301384 4.8665714
6.6133232 9.6301384 4.8662152
1.1731105 9.6401386 4.8619967
2.1856735 9.6401386 4.8691449
2.6000376 9.6420336 4.8670168
8.1022387 9.6403456 4.8677816
6.716589 9.6901379 4.8678331
6.7645426 9.6901379 4.8696108
6.9178305 9.6901379 4.8656931
7.0946989 9.6901379 4.8656807
7.1888585 9.6901379 4.8643994
7.6547127 9.6901379 4.8684292
7.8750944 9.6901379 4.8690329
0.24003792 9.7249279 4.8614206
3.8100376 9.7396555 4.8665824
8.0948763 9.7697248 4.8639379
2.6000376 9.8000059 4.8639622
0.64810961 9.8801384 4.8633499
1.0152487 9.8801384 4.8696041
1.0813222 9.8801384 4.8685188
1.6555132 9.8801384 4.8655982
2.1393559 9.8801384 4.8695412
2.501827 9.8801384 4.8686323
2.5359118 9.8801384 4.8601031
3.7102318 9.8801384 4.8609982
3.8100376 10.048859 4.8676968
3.8146973e-05 10.154603 4.8651943
3.9300375 10.193468 4.8679094
3.8146973e-05 10.47685 4.8616619
0.24003792 10.844151 4.8659077
3.8146973e-05 11.121704 4.8633261
7.9271717 11.401991 4.8664942
3.6000376 11.519385 4.8682709
7.7411613 11.761409 4.8653588
7.7362003 11.848598 4.8630934
3.7200375 11.89164 4.8658371
7.8167439 11.955931 4.8636632
3.9695325 12.060139 4.8667622
4.2833872 12.060139 4.8689876
4.5238371 12.060139 4.8617511
5.1747675 12.060139 4.8696938
7.3610806 12.060139 4.8680029
7.6708312 12.06014 4.8601027
7.9644971 12.0611 4.8649092
7.9637947 12.073442 4.8684778
7.7578592 12.102823 4.8612337
7.7182651 12.163811 4.8632584
4.3452325 12.180138 4.8662095
4.5596294 12.180139 4.8673649
5.0074043 12.180138 4.8698034
5.2411151 12.180138 4.8681288
5.9992275 12.180137 4.8679891
6.3597679 12.180138 4.8694773
6.7978516 12.180138 4.8643198
7.3081126 12.180138 4.8637428
7.3237615 12.180138 4.8608108
7.5174899 12.180138 4.8630724
7.6994023 12.180138 4.8665748
7.7114806 12.283058 4.8622594
3.6000376 12.362117 4.8639727
7.7049346 12.398084 4.8635917
3.7200375 12.435383 4.8688221
7.9410243 12.473621 4.8669338
0.24003792 12.496141 4.862916
3.6000376 12.580242 4.8655829
3.8146973e-05 12.689103 4.8663564
0.24003792 12.706562 4.865911
3.8146973e-05 12.723162 4.8605623
3.7200375 12.766825 4.8682446
7.6742973 12.936522 4.8663564
7.9085369 13.044591 4.8699913
3.8146973e-05 13.101224 4.8668842
3.8146973e-05 13.604495 4.8684888
3.8146973e-05 13.749736 4.8631768
0.24003792 13.779581 4.8694606
0.24003792 13.892209 4.8660932
0.24003792 14.022214 4.8654003
3.8146973e-05 14.049837 4.8648987
7.8445168 14.169722 4.8631558
4.0208178 14.20014 4.8610039
6.0049424 14.20014 4.8600397
6.2529578 14.20014 4.8650503
6.4658041 14.20014 4.8635545
6.5461206 14.20014 4.8643146
3.8146973e-05 14.253406 4.8662062
0.24003792 14.344615 4.8663993
7.5941906 14.344372 4.8629751
0.16161872 14.440138 4.8696613
3.6795487 14.440138 4.8607702
3.7076063 14.440138 4.8660417
3.878396 14.440138 4.8629093
4.0908566 14.440138 4.8647599
4.1187072 14.440137 4.8698001
5.624608 14.440138 4.8662314
6.1926079 14.440138 4.8643641
6.7339635 14.440138 4.8683901
6.9192343 14.440138 4.8630123
0.095273256 0.00013923645 4.8724413
0.92375833 0.00013923645 4.8702841
1.0398383 0.00013923645 4.8789134
2.655854 0.00013923645 4.8799057
2.9371879 0.00013923645 4.8765736
3.288919 0.00013923645 4.8753448
3.6633449 0.00013923645 4.8732681
3.9282446 0.00013923645 4.8757191
4.2884007 0.00013923645 4.8717313
4.8036366 0.00013923645 4.8768806
5.0058732 0.00013923645 4.8727236
5.0708447 0.00013923645 4.8746328
5.4963303 0.00013923645 4.8763275
5.5366783 0.00013923645 4.8759432
5.5465045 0.00013923645 4.879425
6.848597 0.00013923645 4.874896
6.7296505 0.064803451 4.8772979
5.6996498 0.12070812 4.8743196
1.1400375 0.15139031 4.8728995
6.8896503 0.19816622 4.8709316
0.72821033 0.24013901 4.8718019
3.0380018 0.24013901 4.8755841
3.0621152 0.24013901 4.8725429
3.9983122 0.24013901 4.8747025
6.8896503 0.24900231 4.8774509
3.9300375 0.2663615 4.8742242
6.6496506 0.26141089 4.8718514
6.6496506 0.27076098 4.8725872
6.8896503 0.40779579 4.8780746
3.8100376 0.42060673 4.8708606
6.6496506 0.45013753 4.8756599
3.8100376 0.46137798 4.8705449
3.8146973e-05 0.52216989 4.8723898
6.6496506 0.55328965 4.870461
6.6496506 0.56547183 4.873054
0.2400379 0.60740167 4.8763275
3.8146973e-05 0.67641425 4.8734369
3.9300375 0.72075325 4.8780489
3.8100376 0.73541939 4.8758903
3.9300375 0.75370359 4.879272
0.24003792 0.86911625 4.8721066
3.9300375 0.9521454 4.8767076
3.8146973e-05 0.96170646 4.8721046
0.24003792 0.96895182 4.8700504
0.24003792 1.0729377 4.8703775
3.9300375 1.1307495 4.8797293
6.6566792 1.1701393 4.8756905
6.8491044 1.1701393 4.8797469
3.8100376 1.2179856 4.8744745
3.8146973e-05 1.8210086 4.8795729
0.24003792 1.8965646 4.8727798
3.9300375 1.9623921 4.8705139
3.8146973e-05 2.0134573 4.8703861
3.8146973e-05 2.0951011 4.8724709
3.8146973e-05 2.1438262 4.8724084
3.9300375 2.2654231 4.8774662
0.24003792 2.5542858 4.8708858
0.24003792 2.5967679 4.8754501
3.8100376 2.7509582 4.8738165
3.8146973e-05 2.7643077 4.8731751
3.9300375 2.8171051 4.8793287
0.59465486 2.8925838 4.8728495
1.7931198 2.8925838 4.8784895
1.8713031 2.8925838 4.8766842
2.1276855 2.8925838 4.8705273
3.6138563 2.8925838 4.8776917
3.8017492 2.8925838 4.871129
0.24003792 2.9609613 4.8736353
2.6800375 3.0955441 4.8733749
0.24003792 3.1031759 4.877636
3.8146973e-05 3.1350467 4.8748684
0.25126144 3.1325836 4.8706608
0.48900411 3.1325836 4.8713341
1.1000432 3.1325836 4.8792143
1.3804671 3.1325836 4.8771358
1.8750824 3.1325836 4.8756938
2.0846586 3.1325836 4.8756237
3.5045846 3.1325836 4.8712659
3.8146973e-05 3.1455731 4.874186
3.9300375 3.3112569 4.8756394
3.9300375 3.3575294 4.8701878
3.8146973e-05 3.5440707 4.8767471
0.24003792 3.5412493 4.8779964
0.24003792 3.6168451 4.8757219
6.6496506 3.7208886 4.8753004
0.24003792 3.8314528 4.8730049
6.6496506 3.8756254 4.8794937
6.6496506 4.3335495 4.8706779
3.8146973e-05 4.5185876 4.8750839
6.8896503 4.6360016 4.8793097
6.6496506 4.6952171 4.8717613
6.6496506 4.7021651 4.8717499
3.8146973e-05 4.7511134 4.8756104
4.0389557 4.8001385 4.8754735
4.0575933 4.8001385 4.8757133
4.1191492 4.8001385 4.8719373
4.2531385 4.8001385 4.8776736
4.3224974 4.8001385 4.8737202
5.231782 4.8001385 4.8721113
5.7337074 4.8001385 4.8727036
6.582581 4.8001385 4.8716702
3.8146973e-05 4.8479576 4.8739843
3.8146973e-05 4.8601403 4.8707132
6.6496506 4.9007435 4.8788433
4.3433242 4.9201393 4.8745317
4.4959831 4.9201393 4.8763418
4.9751787 4.9201393 4.8774505
5.3089414 4.9201393 4.8741641
5.8289642 4.9201393 4.87538
6.0608268 4.9201393 4.8772502
6.1589603 4.9201393 4.8728948
6.4469447 4.9201393 4.8748765
6.6496506 4.9270229 4.8745933
6.6496506 5.3085747 4.8739724
0.24003792 5.350503 4.8744626
0.24003792 5.3740087 4.8734441
0.24003792 5.4232793 4.8704119
3.8146973e-05 5.5457931 4.8730383
6.8896503 5.5732064 4.8718901
6.6496506 5.8514562 4.8716998
2.3364372 5.9501381 4.8710122
3.9300375 5.9578619 4.8740492
6.8896503 5.9690237 4.8731155
3.8146973e-05 6.021286 4.8798909
6.8896503 6.1280327 4.8763261
3.8146973e-05 6.1405368 4.8764386
6.8896508 6.1671562 4.870666
3.8146973e-05 6.1757479 4.8756905
6.8896503 6.2551618 4.8763933
2.4173124 6.5501385 4.8755598
0.24003792 6.66114 4.8728833
3.8533435 6.8701386 4.8743601
3.8100376 6.9617643 4.8787065
3.8100374 6.9799638 4.8772178
3.8100376 6.9920835 4.8742127
3.8100376 7.1347189 4.8719902
1.2326702 8.0551376 4.8767166
1.2588643 8.0551376 4.872952
1.8702474 8.0551376 4.8724251
2.0458326 8.0551376 4.8753381
3.9300375 8.1296988 4.8791695
0.44976062 8.1701393 4.8711882
0.6251452 8.1701393 4.8777628
1.0894518 8.1701393 4.8712883
2.5000381 8.3532515 4.8773556
0.82935148 8.4201393 4.8716412
0.94869548 8.4201393 4.8775635
1.1292419 8.4201393 4.8751917
1.8399755 8.4201393 4.8763824
3.8146973e-05 8.4774132 4.8787036
3.8100376 8.4794321 4.8787003
1.4995819 8.5401382 4.8735685
1.5684319 8.5401382 4.8765116
2.2456706 8.5401382 4.8776927
6.7792377 8.5401382 4.8778591
0.24003792 8.5571785 4.8783379
6.6496506 8.7045946 4.873373
6.8896503 8.7365856 4.8767657
3.8100376 8.8044577 4.8721204
3.8100376 8.8797512 4.8722496
3.8100376 8.9230595 4.8780904
6.6496506 9.1111574 4.8747969
0.24003792 9.1788464 4.8738275
0.24003792 9.2712021 4.8714075
6.6496506 9.3137856 4.8797426
6.8896503 9.3315716 4.8749971
6.6496511 9.3940239 4.8747063
3.9300375 9.4125462 4.8718472
6.6568131 9.4501381 4.8759694
7.0397325 9.4501381 4.8795023
7.1885939 9.4501381 4.8734665
7.4130926 9.4501381 4.8775091
3.8146973e-05 9.4606276 4.8741455
3.9351463 9.5101376 4.8757424
4.6133251 9.5101376 4.8767862
4.628511 9.5101376 4.8778138
4.8419738 9.5101376 4.8776007
4.8665028 9.5101376 4.8773017
5.1290531 9.5101376 4.8760672
5.1839266 9.5101376 4.8715529
5.4617662 9.5101376 4.877039
5.5377073 9.5101376 4.8702898
5.5705156 9.5101376 4.8733287
5.9383106 9.5101376 4.879385
6.5559521 9.5101376 4.8771873
6.6496506 9.5197964 4.8785801
3.8100376 9.5232811 4.8778439
6.6496506 9.5344238 4.8700008
3.8100376 9.5870304 4.8766356
0.24003792 9.6024628 4.8747807
3.8146973e-05 9.6210127 4.8761024
3.9395025 9.6301384 4.8706956
4.6462126 9.6301384 4.870749
5.3699985 9.6301384 4.8733702
5.4166441 9.6301384 4.8790112
5.7730665 9.6301384 4.8704958
5.8274846 9.6301384 4.8743095
5.8747735 9.6301384 4.8744159
6.1591578 9.6301384 4.8777976
6.1978726 9.6301384 4.8794727
6.4661045 9.6301384 4.8799033
6.4960713 9.6301384 4.8793511
0.34099767 9.6401386 4.8761086
0.40153834 9.6401386 4.8780408
1.8537308 9.6401386 4.8766203
2.470937 9.6401386 4.8755116
7.1887407 9.6901379 4.8774128
7.3705711 9.6901379 4.8784704
7.7078748 9.6901379 4.8725519
7.9225969 9.6901379 4.872098
3.8146973e-05 9.797266 4.8791103
3.9300375 9.8113108 4.8754473
0.56943136 9.8801384 4.8733711
0.7122758 9.8801384 4.8714681
1.0206474 9.8801384 4.8741159
1.4020569 9.8801384 4.8760185
2.0519741 9.8801384 4.877738
8.0869207 9.9095583 4.8734736
7.84479 9.9401712 4.871428
8.0842848 9.9558792 4.8721199
3.8100376 10.065994 4.8737831
8.0721407 10.169312 4.8751454
3.8146973e-05 10.18749 4.8731794
3.8146973e-05 10.218078 4.8753624
8.0663319 10.271412 4.8763208
3.8146973e-05 10.422183 4.8742418
3.8146973e-05 10.435137 4.8766284
0.24003792 10.589434 4.8754759
0.24003792 10.886257 4.8713799
3.8146973e-05 11.186142 4.8792305
0.24003792 11.207 4.8733149
0.24003792 11.74878 4.8704853
0.24003792 11.920045 4.8715072
3.8146973e-05 12.051157 4.8747373
7.8746719 12.055473 4.8705873
3.7435837 12.060139 4.8709626
3.8736732 12.060139 4.8733211
3.8934865 12.060139 4.8785548
5.107728 12.060139 4.8768973
5.4260883 12.060139 4.8764582
5.6054029 12.060139 4.8704653
6.5691414 12.060139 4.870296
6.7534566 12.060139 4.8716283
7.5386648 12.060139 4.8741417
3.7200375 12.100111 4.8717084
3.7200375 12.112963 4.8777733
3.8726642 12.180138 4.8719664
4.0588336 12.180138 4.8714633
4.2536249 12.180138 4.8731523
4.5248089 12.180138 4.8763046
4.581502 12.180138 4.8705306
4.8295183 12.180138 4.8714809
5.2646618 12.180138 4.874825
5.2961874 12.180138 4.8753362
5.4051857 12.180138 4.87251
5.7877207 12.180138 4.8707733
5.8119855 12.180138 4.8704572
5.8205647 12.180138 4.8729739
6.0359163 12.180138 4.8720078
6.1834402 12.180138 4.8710327
6.4592571 12.180138 4.8762832
6.539753 12.180138 4.8782606
7.6318002 12.180138 4.8798699
3.8146973e-05 12.243969 4.8793173
3.6000376 12.339188 4.8757172
7.9477792 12.354913 4.8706617
0.24003792 12.407501 4.8711195
0.24003792 12.598241 4.8727221
7.9276867 12.708037 4.8732705
7.9142213 12.944689 4.877234
7.6668329 13.067707 4.8789768
7.9050946 13.105085 4.8798223
0.24003792 13.323541 4.870645
0.24003792 13.331927 4.8736176
0.24003792 13.611891 4.874373
3.8146973e-05 13.881021 4.8727946
7.6183004 13.920639 4.8783116
7.8587017 13.92043 4.8741612
7.6121311 14.02907 4.8764062
3.8146973e-05 14.05192 4.8733301
7.6077642 14.105808 4.876451
7.6064911 14.128181 4.8794355
0.27744907 14.20014 4.8761687
5.8319464 14.20014 4.8762374
6.7975922 14.20014 4.8717999
7.1352186 14.20014 4.8796062
7.2654128 14.20014 4.8746443
7.37327 14.200141 4.8753972
7.5218225 14.20014 4.8720827
7.8423133 14.208453 4.8709459
7.6015244 14.215471 4.8711138
4.4150381 14.237102 4.8742356
3.4700375 14.289621 4.8772311
4.4150381 14.327417 4.8733463
3.4700375 14.35583 4.8773026
5.1450386 14.381438 4.8794169
3.8146973e-05 14.395926 4.8750567
3.7197623 14.440138 4.875699
3.7579122 14.440138 4.871984
4.3560352 14.440138 4.8715973
6.2306085 14.440138 4.8779869
6.4958739 14.440138 4.8781176
7.3050151 14.440138 4.8702288
7.5604153 14.440138 4.8775167
7.6114969 14.440138 4.8703899
7.7986398 14.440138 4.8762789
0.25806063 0.00013923645 4.8805132
0.7002238 0.00013923645 4.8803172
1.0127733 0.00013923645 4.8885956
2.6076 0.00013923645 4.8897243
3.496304 0.00013923645 4.8817821
3.7359047 0.00013923645 4.8838196
3.9886436 0.00013923645 4.8882866
4.2560573 0.00013923645 4.8800402
5.1159711 0.00013923645 4.8894076
5.3045664 0.00013923645 4.882966
5.4943581 0.00013923645 4.8864312
1.1400375 0.10297094 4.8822379
0.40031153 0.24013901 4.8844619
2.2948356 0.24013901 4.8873425
2.3632836 0.24013899 4.8830266
2.8588665 0.24013901 4.8842545
2.92103 0.24013901 4.8870935
5.0310922 0.24013901 4.8887873
5.0540833 0.24013901 4.8854766
5.104857 0.24013901 4.8809628
5.4737196 0.24013901 4.8832331
6.6747894 0.25013924 4.8815594
6.8896503 0.34932682 4.8898883
3.8146973e-05 0.38795316 4.8820853
3.8146973e-05 0.4401938 4.8820782
3.9300375 0.50842321 4.8880486
3.8146973e-05 0.53930861 4.8808632
0.24003792 0.63087642 4.8800154
6.6496506 0.68214929 4.882247
3.9300375 0.70363569 4.8892107
0.24003792 0.75173795 4.880199
0.24003792 0.77548927 4.8865223
3.9300375 0.78701329 4.8850293
3.8100376 0.81897956 4.8812852
3.8100376 0.8524518 4.8831439
6.6496511 0.90218973 4.8854671
3.8100376 1.008023 4.8862371
6.6945 1.1701393 4.8806434
3.8146973e-05 1.1908287 4.8826547
3.9300375 1.2156104 4.8810358
3.8100376 1.4211086 4.8810835
3.9300375 1.4898831 4.8874712
0.24003792 1.6489366 4.8821983
3.9300375 2.4061925 4.8850231
3.8100376 2.4226363 4.8865366
3.8146973e-05 2.4466479 4.889709
3.8100376 2.463654 4.8845034
3.8100376 2.6804056 4.8801131
3.8146973e-05 2.7534111 4.8851795
0.29123431 2.8925838 4.8867078
1.0349535 2.8925838 4.8896294
1.2164512 2.8925838 4.8873434
1.3524745 2.8925838 4.8864679
2.0673683 2.8925838 4.888566
2.3589745 2.8925838 4.8860836
3.9300375 2.9067378 4.8888392
3.9300377 2.9352589 4.8848624
0.47753233 3.1325836 4.8838739
1.0235634 3.1325836 4.8847055
2.3927138 3.1325836 4.8837795
6.8744698 3.2001381 4.8884301
3.9300375 3.2509999 4.8851562
6.8896499 3.2671609 4.8845057
3.8100376 3.2951736 4.8851519
0.24003792 3.3231652 4.8821144
3.8146973e-05 3.3445513 4.8882318
6.6496506 3.3764431 4.8847384
3.9300377 3.4455924 4.8868742
3.8100376 3.4847221 4.8834057
6.6496506 3.4885807 4.8827639
3.8146973e-05 3.5232718 4.8810225
0.24003792 3.5354884 4.8861275
6.6496506 3.911262 4.8887262
6.6496506 4.0993471 4.8895869
6.6496501 4.2305951 4.8873062
3.8146969e-05 4.3120885 4.8804574
0.24003792 4.3107386 4.8829589
3.8146973e-05 4.3389397 4.8817329
6.8896503 4.3407927 4.8837881
3.8146973e-05 4.3856244 4.888032
6.8896503 4.5253062 4.8849292
3.9300373 4.5659323 4.8868256
0.24003792 4.6548634 4.884325
3.8146973e-05 4.7061 4.8845716
6.6496506 4.7073679 4.8855939
0.24003792 4.7238808 4.8896151
4.4039311 4.8001385 4.8857908
4.7901249 4.8001385 4.8885527
5.1336112 4.8001385 4.8887467
3.8146973e-05 4.911881 4.8802352
4.2757096 4.9201393 4.8895268
4.4892139 4.9201393 4.8892593
4.5410171 4.9201393 4.8805852
5.7444777 4.9201393 4.8815975
5.9214993 4.9201393 4.8840938
6.0425892 4.9201393 4.8820219
6.6292744 4.9201393 4.887877
6.6496506 5.0271301 4.8841515
3.9300375 5.0797367 4.8805375
3.8100376 5.0883551 4.8894396
3.9300375 5.4234638 4.8802919
6.8896503 5.4424696 4.8868809
6.6496506 5.6241498 4.8804479
3.8100376 5.7243342 4.888308
6.6496506 5.9040141 4.8832998
3.8100376 5.9287767 4.8877826
6.8896503 5.9244804 4.8848448
3.8100376 5.9357553 4.8874068
2.3022919 5.9501381 4.889431
3.8988283 5.9701385 4.888483
6.6496506 6.0301561 4.887342
6.6496506 6.0410657 4.8881845
3.8146973e-05 6.2809992 4.8863211
2.2600374 6.3812494 4.8814316
6.6925673 6.5101376 4.8839817
3.8146973e-05 6.8375368 4.8829732
0.075059101 6.8751388 4.8848648
3.8595328 6.8701382 4.8834848
3.8683481 6.8701382 4.8892279
3.9300375 6.9866529 4.881979
3.8100376 7.4641619 4.8861618
3.8100376 7.815196 4.8825121
3.8100376 7.9565568 4.8817959
3.9300375 8.0165024 4.8899159
0.5581674 8.0551376 4.8866034
1.159536 8.0551376 4.8854914
1.1854655 8.0551376 4.8820028
2.1142433 8.0551376 4.886519
2.2133741 8.0551376 4.8857031
2.3850374 8.0570393 4.8843575
2.3850374 8.1457729 4.8888206
0.34363341 8.1701393 4.8803582
0.57093471 8.1701393 4.885386
0.63933265 8.1701393 4.8873525
1.1260767 8.1701393 4.8863835
1.2309794 8.1701393 4.8828082
1.3083642 8.1701393 4.8813353
3.8100376 8.2482719 4.8882961
3.8146973e-05 8.2597694 4.8874636
2.3850374 8.2518063 4.8898625
2.5000381 8.2502222 4.8835697
0.24003792 8.2785397 4.8820009
2.3850374 8.2875214 4.8828201
3.8146973e-05 8.3919392 4.8887906
1.0948784 8.4201393 4.8828788
1.90292 8.4201393 4.8851562
0.29852876 8.5401382 4.889235
1.0031693 8.5401382 4.8868051
2.1546452 8.5401382 4.880744
2.3766794 8.5401382 4.881391
6.7848268 8.5401382 4.8858871
3.8146973e-05 8.6816149 4.8804088
0.24003792 8.7171021 4.8851285
3.8146973e-05 8.8183079 4.8824654
3.9300375 8.8320713 4.8821836
6.6496506 8.8481102 4.8832674
3.9300375 8.8862476 4.8836555
3.9300375 8.9532928 4.8883047
6.8896503 9.0158176 4.8841772
3.9300375 9.0782013 4.8802905
6.6496506 9.0949125 4.8835735
3.9300375 9.1280899 4.8829536
6.6496506 9.1207161 4.8849955
3.8100376 9.1453133 4.8842521
3.8100376 9.2238693 4.8880415
3.9300375 9.2565422 4.8811903
6.6496506 9.2939005 4.885354
6.6496511 9.3175211 4.8865891
3.8100376 9.3215141 4.8885407
6.6496506 9.3340454 4.8823519
3.8100376 9.3578529 4.885047
3.9300375 9.3792295 4.8899488
3.8146973e-05 9.460268 4.88976
3.8100376 9.5107651 4.8880377
4.4180603 9.5101376 4.8890553
4.5355549 9.5101376 4.8885927
4.7510328 9.5101376 4.8897939
4.9824705 9.5101376 4.88873
5.155076 9.5101376 4.8827114
5.3580494 9.5101376 4.8823342
5.5020542 9.5101376 4.8811588
6.571631 9.5101376 4.8842196
3.9300375 9.5201464 4.882297
6.6496506 9.5632477 4.8875461
3.9300375 9.6391811 4.8881245
3.9724808 9.6301384 4.8809128
4.2442789 9.6301384 4.8855405
4.3832197 9.6301384 4.8824024
4.4990683 9.6301384 4.8844047
5.0007291 9.6301384 4.8863883
5.3540177 9.6301384 4.8853974
5.3734932 9.6301384 4.8845305
5.6070375 9.6301384 4.8803501
5.9841261 9.6301384 4.8800631
6.1447234 9.6301384 4.8823628
6.4037113 9.6301384 4.8858738
6.447454 9.6301384 4.8829226
2.2261744 9.6401386 4.8837619
2.5022244 9.6401386 4.8804946
6.6496506 9.6659975 4.8823972
6.9050975 9.6901379 4.8877263
7.0009632 9.6901379 4.8801565
7.1400852 9.6901379 4.8893309
7.5649743 9.6901379 4.8855147
7.6456342 9.6901379 4.8819008
8.0919437 9.8212852 4.8832774
3.8100376 9.8470268 4.8810282
2.6000376 9.8543768 4.8897552
3.8100376 9.8532791 4.8850842
0.24003792 9.8730831 4.8816071
0.33501652 9.8801384 4.888392
8.0759935 10.101605 4.8810325
3.8146973e-05 10.114277 4.8862185
7.8919048 10.368317 4.8820167
3.8146973e-05 10.464638 4.8845296
3.8146973e-05 11.089104 4.8861532
3.8146973e-05 11.458533 4.8829813
3.7068772 11.460138 4.8828268
3.7200375 11.471461 4.884573
3.7200375 11.481163 4.8854532
7.7564578 11.492569 4.8872738
3.8146973e-05 11.532221 4.8868217
3.7200375 11.723689 4.8878102
3.7200375 11.750841 4.8808336
7.7415328 11.754887 4.8820915
3.8146973e-05 11.929241 4.8866978
3.8146973e-05 11.99308 4.8814058
3.9018767 12.060139 4.886014
3.967525 12.060139 4.8883657
4.1045051 12.060139 4.888803
4.2550659 12.060139 4.8816233
4.3666706 12.060139 4.88763
5.1768417 12.060139 4.8859758
5.2552152 12.060139 4.8852825
5.3015842 12.060139 4.8832006
5.8775716 12.060139 4.8831902
6.2461739 12.060139 4.8841777
6.2695613 12.060139 4.8814898
6.4591994 12.060139 4.8828306
6.4711847 12.06014 4.8898358
6.5805178 12.060139 4.8827748
3.7200375 12.084715 4.8832273
3.7830114 12.180138 4.8803172
5.1699777 12.180138 4.8894873
6.1109443 12.180138 4.8825808
6.2134414 12.180138 4.8814564
6.2582488 12.180138 4.8859987
7.288486 12.180138 4.8805318
7.299664 12.180138 4.8867249
7.7083611 12.337871 4.8878841
0.24003792 12.630359 4.8839631
7.6901608 12.657721 4.8803606
3.6000376 12.708733 4.8834543
0.24003792 12.776315 4.8811913
0.24003792 12.861345 4.8802128
7.915062 12.929911 4.8861532
0.24003792 12.936414 4.8842821
7.6743231 12.936059 4.8834033
0.24003792 12.95723 4.8805561
7.6708851 12.996495 4.8805714
7.6585412 13.213428 4.8840876
0.24003792 13.22049 4.8860903
7.6537819 13.29707 4.8832335
3.8146973e-05 13.316484 4.8803868
3.8146973e-05 13.338332 4.8837991
3.8146973e-05 13.373534 4.888165
0.24003792 13.45834 4.8823833
7.6444702 13.460716 4.881454
3.8146973e-05 13.496585 4.8826342
7.6412745 13.516877 4.8852916
7.6295872 13.722288 4.8893781
7.855432 13.977893 4.8845167
7.8459821 14.143969 4.8879819
5.7405562 14.20014 4.8893633
5.892961 14.20014 4.8809733
5.9902897 14.200139 4.8892236
6.0045109 14.20014 4.8861046
6.1740065 14.20014 4.8811879
6.9895163 14.20014 4.8859191
7.5939016 14.20014 4.8894739
5.1450386 14.241426 4.8889937
0.24003792 14.291788 4.886446
7.5944943 14.339024 4.8851213
3.4700375 14.382753 4.8809271
0.24003792 14.419312 4.8859348
3.4828718 14.440138 4.8867354
4.1385508 14.440138 4.8828168
4.2242589 14.440138 4.8850932
4.3088551 14.440138 4.8899846
6.5001392 14.440138 4.887095
6.5695648 14.440138 4.8880386
6.8593125 14.440138 4.8800788
7.0627012 14.440138 4.8860073
7.5300188 14.440138 4.8834605
0.14064668 0.00013923645 4.8963356
0.2887997 0.00013923645 4.8925452
0.607458 0.00013923645 4.8902502
0.69382596 0.00013923645 4.8960438
0.88756382 0.00013923645 4.8965659
0.89248717 0.00013923645 4.8962798
0.99321413 0.00013923645 4.8989267
3.1737504 0.00013923645 4.8928318
3.2572608 0.00013923645 4.8938746
3.3562641 0.00013923645 4.8933644
6.7296505 0.0042057587 4.8900337
3.8146973e-05 0.046796188 4.8975525
6.8896503 0.088147119 4.8927736
0.24003792 0.1244847 4.8957844
2.1700373 0.20989221 4.894237
0.47117963 0.24013901 4.8901796
0.52087796 0.24013901 4.898664
0.53207177 0.24013901 4.8992224
2.2296991 0.24013901 4.8981681
2.3095694 0.24013901 4.8945422
2.8323526 0.24013901 4.8956871
3.7651229 0.24013901 4.8983455
4.0036259 0.24013901 4.8907895
4.1296716 0.24013901 4.8906088
4.7058921 0.24013901 4.8932433
5.153832 0.24013901 4.8940873
5.2811737 0.24013901 4.8904929
5.3941369 0.24013899 4.8922257
0.2400379 0.26676059 4.8938379
3.9300375 0.37174189 4.8917212
6.6496506 0.39892432 4.8929396
6.8896503 0.55117947 4.8910155
