# .PCD v0.7 - Point Cloud Data file format
VERSION 0.7
FIELDS x y z
SIZE 4 4 4
TYPE F F F
COUNT 1 1 1
WIDTH 1581
HEIGHT 1
VIEWPOINT 0 0 0 1 0 0 0
POINTS 1581
DATA ascii
7.8952537 13.336769 3.7070761
0.24303818 13.368244 3.7004879
0.0030384064 13.469044 3.7099166
0.24303818 13.495112 3.7003365
0.0030384064 13.577751 3.7051182
0.0030384064 13.624088 3.7071154
7.6362371 13.664157 3.7018099
0.0030384064 13.725625 3.7080455
0.0030384064 13.906476 3.7077382
0.24303818 14.044718 3.7018032
0.24303818 14.16389 3.7039895
1.054713 14.206147 3.7065287
2.0710864 14.206146 3.702028
3.0837133 14.206146 3.7065554
3.6052742 14.206146 3.7008755
3.7573032 14.206146 3.7050366
3.8508515 14.206146 3.7002945
3.9907413 14.206146 3.7051792
4.3390131 14.206146 3.7066758
5.2554202 14.206146 3.7017279
5.5871944 14.206146 3.7046063
5.8250608 14.206146 3.7022672
6.2090058 14.206146 3.7026038
6.8985815 14.206146 3.7098284
7.5583029 14.206146 3.7071037
0.24303818 14.261251 3.7036023
7.598197 14.332688 3.7011189
0.2126779 14.446144 3.7061043
0.65838468 14.446144 3.7094505
1.9802554 14.446144 3.7016678
2.1777003 14.446144 3.7031476
3.2342303 14.446144 3.7043512
4.2461553 14.446144 3.7024174
5.3899159 14.446144 3.7007725
5.4774652 14.446144 3.7093673
5.4801946 14.446144 3.7089291
5.7699542 14.446144 3.7070765
5.8404207 14.446144 3.7075224
6.9020767 14.446144 3.7052541
7.3940763 14.446144 3.7079592
7.4960456 14.446144 3.7010713
7.7154827 14.446144 3.7048693
2.3118532 0.0061454773 3.7109599
2.4834733 0.0061454773 3.7182598
2.5780864 0.0061454773 3.7188413
3.7215323 0.0061454773 3.7111146
3.8014641 0.0061454773 3.7190378
4.0338478 0.0061454773 3.7104278
4.2120919 0.0061454773 3.7172389
4.5065718 0.0061454773 3.7161798
4.5511212 0.0061454773 3.7153583
6.9677362 0.0061454773 3.7136054
7.0126514 0.021396056 3.713238
7.2526512 0.064767048 3.716187
1.1430378 0.15848742 3.7167594
0.0030384061 0.19521846 3.7118645
0.24303818 0.19149412 3.7119675
0.37080127 0.24614525 3.7137616
0.75781775 0.24614525 3.7159734
0.79453957 0.24614525 3.7181449
3.7764957 0.24614525 3.7164445
3.9314022 0.24614525 3.7164469
4.788949 0.24614525 3.7140274
0.24303818 0.29566172 3.7197721
7.0126514 0.34093043 3.7198114
0.0030384066 0.36885002 3.7156603
7.2526512 0.47134104 3.7144623
7.0126514 0.48437005 3.7185874
7.2526512 0.53253204 3.7156038
0.24303818 0.57825923 3.713042
0.0030384064 0.59339249 3.7123411
3.443038 0.59764296 3.7180471
0.0030384064 0.63887131 3.713393
3.4430377 0.65096307 3.7185493
7.2526512 0.71437335 3.7158484
3.5630379 0.83086491 3.7142096
3.5630379 0.94421768 3.7133727
3.443038 1.1643093 3.7161074
3.5630379 1.2166152 3.7168863
3.5630379 1.3340106 3.7136002
3.5630379 1.4334806 3.7181816
3.443038 1.4948248 3.7115164
0.0030384064 1.5269897 3.7179191
3.5630379 1.5379946 3.7133532
0.0030384064 1.7643501 3.7180154
0.0030384064 2.2769122 3.714278
3.443038 2.3200281 3.7170906
3.5630379 2.3745406 3.7186785
0.24303818 2.5050972 3.7133141
3.5630379 2.7365699 3.7171254
0.63624728 2.8361454 3.7139695
0.90641111 2.8361454 3.7154489
1.3398767 2.8361454 3.7142234
1.9111445 2.8361454 3.7137542
0.24303818 2.8706262 3.7192514
2.6830378 2.9774244 3.7119923
0.24303818 3.0687165 3.7165539
0.3809309 3.0761452 3.7103097
0.64986813 3.0761452 3.7151029
0.84391516 3.0761452 3.7110732
1.237076 3.0761452 3.7132306
1.3809574 3.0761452 3.7193155
1.3927691 3.0761452 3.7130504
1.4686124 3.0761452 3.7133358
1.5104634 3.0761452 3.7131205
1.6503582 3.0761452 3.715764
1.7325721 3.0761452 3.7101893
2.3324153 3.0761452 3.7128925
2.3634696 3.0761452 3.7148581
0.0030384064 3.223773 3.7182403
3.5630379 3.4259632 3.7154973
7.0126514 3.4377298 3.7110174
7.2526512 3.6769867 3.7171745
7.2526512 3.8442664 3.7120481
7.0126514 3.9530118 3.7119453
0.24303818 4.1022968 3.7140765
0.24303818 4.1182818 3.7195606
7.2526512 4.1378818 3.7133081
0.24303818 4.1480265 3.7187986
7.2526512 4.1751313 3.7138414
0.0030384064 4.2078338 3.7179258
7.2526517 4.2898426 3.7130723
7.2526512 4.4023628 3.719882
3.4430382 4.4726877 3.7164416
3.443038 4.5337181 3.7105079
7.0126514 4.7406597 3.7196639
0.0030384064 4.8905745 3.7198603
0.24303818 4.9951859 3.7121012
0.0030384064 5.0805554 3.7199562
7.0126514 5.1338186 3.7163582
7.2526512 5.182548 3.7105985
3.443038 5.2025051 3.7143211
3.443038 5.2256756 3.7152042
3.8366258 5.236145 3.7123551
4.0878549 5.236145 3.7151144
4.7017574 5.236145 3.7171292
5.0697713 5.236145 3.7136383
5.6888061 5.236145 3.7193351
6.2638168 5.236145 3.7159719
6.3952098 5.236145 3.7131941
0.24303818 5.2701759 3.7196693
3.5630379 5.3474326 3.7110786
3.5630379 5.3524699 3.7193429
4.4670238 5.356144 3.7150378
5.7488689 5.356144 3.7161736
6.500278 5.356144 3.7153046
6.7509699 5.356144 3.7174916
6.9753628 5.356144 3.7151644
3.443038 5.3915682 3.7176585
3.5630379 5.4354792 3.7187066
7.2526512 5.4575691 3.7146664
3.443038 5.4986067 3.7173858
7.2526512 5.6022997 3.7191849
0.24303818 5.7387638 3.711123
3.5630379 5.9019437 3.7137465
2.4007988 5.9561443 3.710835
2.5030384 5.9574075 3.716222
7.2526512 6.0500355 3.7145975
2.2630377 6.0638695 3.7107415
7.0126514 6.1626759 3.7191489
7.2526512 6.1768241 3.7146614
7.0126514 6.227355 3.7134116
7.2526512 6.3067899 3.7160029
2.5030384 6.3521242 3.7171078
7.0126514 6.3789649 3.719703
2.5030384 6.4382172 3.7142458
0.0030384064 6.4663033 3.7108691
2.329463 6.5561447 3.7118754
0.0030384064 6.6919742 3.7195911
3.5389118 6.8761444 3.7133381
3.443038 7.0544028 3.7158532
3.5630379 7.086699 3.7173901
3.5630379 7.135252 3.71122
3.443038 7.3883491 3.719707
3.443038 7.4197903 3.7191877
3.443038 7.6641035 3.7112265
3.443038 7.6922379 3.7109356
3.443038 7.8924117 3.7136784
0.0030384064 7.9981766 3.7194221
0.25686014 8.0611439 3.7177265
1.7187665 8.0611439 3.7152939
2.3880377 8.130722 3.7160311
0.33379018 8.1761456 3.7151432
0.73132491 8.1761456 3.7181392
0.95027846 8.1761456 3.7164061
1.5206889 8.1761456 3.7136784
1.8000522 8.1761456 3.7165775
1.9842874 8.1761456 3.7124152
3.5630379 8.1794729 3.710135
3.443038 8.1946344 3.7179067
2.5030384 8.2394657 3.7158327
2.3880377 8.3778639 3.7148547
0.66239893 8.4261456 3.7152293
0.85093033 8.4261456 3.7178602
2.0374222 8.4261456 3.7178032
2.2113402 8.4261456 3.7151806
2.2469971 8.4261456 3.7135289
2.3420312 8.4261456 3.7102883
2.3880377 8.4273653 3.7110369
2.5030384 8.5032511 3.7147424
3.5630379 8.5348101 3.7169929
0.61938184 8.5461445 3.7174609
0.6392619 8.5461445 3.7167683
0.74755621 8.5461445 3.713084
0.80275923 8.5461445 3.7178998
2.5030384 8.5424337 3.710768
3.5630379 8.5578737 3.716887
7.2526512 8.5795879 3.718142
3.443038 8.6329632 3.7174945
3.5630379 8.6381531 3.7160418
0.0030384064 8.6925297 3.7123215
0.0030384064 8.7059469 3.7106879
7.0126514 8.8330908 3.7148829
3.443038 8.8743439 3.7195981
0.0030384064 8.8965616 3.7159972
0.24303818 9.0621643 3.7191641
3.443038 9.2221584 3.7174768
7.2526507 9.2784481 3.7196331
3.443038 9.3194342 3.7186465
7.2526512 9.3514805 3.7100334
2.3880377 9.399004 3.7130814
7.0187607 9.4561443 3.7138608
7.4135065 9.4561443 3.7158127
7.5189695 9.4561443 3.7161391
8.094882 9.4561443 3.7144387
3.443038 9.5160055 3.7153258
3.6511137 9.5161438 3.7108564
3.7038872 9.5161438 3.7161748
4.16432 9.5161438 3.7121277
4.4721804 9.5161438 3.7134504
4.5215144 9.5161438 3.7161629
4.6366138 9.5161438 3.714633
4.8127499 9.5161438 3.7101007
4.8890958 9.5161438 3.7196279
4.906188 9.5161438 3.7170162
5.0083036 9.5161438 3.719569
5.0193338 9.5161438 3.7135854
5.0405798 9.5161438 3.7188475
5.2665701 9.5161438 3.7111425
5.307796 9.5161438 3.7123814
5.4094748 9.5161438 3.7122445
5.5340042 9.5161438 3.7189605
5.6594906 9.5161438 3.717144
5.6762023 9.5161438 3.7151306
5.7813053 9.5161438 3.7178011
5.9012074 9.5161438 3.7132392
6.0378284 9.5161438 3.7138808
6.1004925 9.5161438 3.7190709
6.5923662 9.5161438 3.7153049
6.6371322 9.5161438 3.7115068
6.9271259 9.5161438 3.7125905
7.0126514 9.5345507 3.7105224
3.5630379 9.5641041 3.7120891
8.1096764 9.5683441 3.7113948
3.634315 9.6361446 3.7113197
3.6597834 9.6361446 3.7166893
3.9632802 9.6361446 3.7179973
4.149116 9.6361446 3.7172968
4.2222457 9.6361446 3.7180378
4.8414106 9.6361446 3.7153692
5.4330311 9.6361446 3.7156963
5.5204897 9.6361446 3.7109752
5.5660357 9.6361446 3.7101858
5.5969825 9.6361446 3.7180173
5.7755551 9.6361446 3.7104018
6.7267704 9.6361446 3.7112236
6.8105006 9.6361446 3.7129965
1.1245711 9.6461449 3.7103999
1.3544205 9.6461449 3.7194695
1.9222931 9.6461449 3.7174621
2.2014515 9.6461449 3.7120423
7.3672199 9.6961441 3.7154107
7.8025484 9.6961441 3.7188706
7.9793615 9.6961441 3.7191195
3.5030384 9.7940388 3.7139854
0.24303818 9.8312063 3.7174129
0.24303818 9.8434343 3.7143393
0.24303818 9.8518038 3.7184389
0.89947057 9.8861446 3.7148144
1.0782921 9.8861446 3.7120557
1.1958889 9.8861446 3.7149372
1.2383317 9.8861446 3.7198739
1.4621224 9.8861446 3.7168202
2.2700381 9.8861446 3.7136729
3.5630379 9.8870001 3.7128353
7.8505173 9.8982449 3.7104273
8.089716 9.9191608 3.7108517
7.8458147 9.9808979 3.7121005
3.5630379 10.008539 3.7181504
0.24303818 10.02886 3.7163358
3.5630381 10.157552 3.7149978
3.5630379 10.179933 3.7151363
8.0696421 10.271953 3.7118227
3.4589379 10.296144 3.7197123
7.9683628 10.378504 3.7110608
8.0231867 10.381622 3.710654
0.24303818 10.544293 3.7176924
0.24303818 10.720547 3.7142138
0.24303818 10.73373 3.7199569
0.0030384064 10.945408 3.7161503
0.24303818 11.209543 3.7193294
3.6134131 11.466145 3.7157946
7.7603798 11.482383 3.7110853
7.9978151 11.534268 3.7183566
0.0030384064 11.693725 3.715523
3.7230377 11.774463 3.71332
0.0030384064 11.882432 3.7132688
7.7346969 11.933764 3.7124231
7.8821883 11.982107 3.7138391
7.9718285 11.99098 3.7110353
3.7230375 12.000248 3.7178319
4.5640497 12.066145 3.7188578
5.9640322 12.066145 3.7163715
6.2341614 12.066145 3.7179217
6.387991 12.066145 3.7183633
6.636384 12.066145 3.7177973
7.0105128 12.066145 3.7113733
7.2311678 12.066145 3.7179413
3.841877 12.186144 3.7116849
4.1139431 12.186144 3.7131748
4.1625504 12.186144 3.7111969
5.3082204 12.186144 3.7197914
6.2952561 12.186144 3.7151451
6.4295702 12.186144 3.719635
6.8380418 12.186144 3.712312
7.5843248 12.186144 3.7187276
0.24303818 12.276979 3.7153864
0.0030384064 12.284543 3.7189331
0.24303818 12.356413 3.7121174
0.0030384064 12.522485 3.7175841
0.0030384064 12.554615 3.71754
3.6030378 12.642966 3.7105877
3.6030378 12.664927 3.7156627
0.0030384064 12.717015 3.7118809
7.9170766 12.953237 3.7116539
7.6701803 13.067622 3.7128534
0.0030384064 13.227256 3.7165716
0.0030384064 13.355474 3.7159696
7.8930979 13.374655 3.7153983
0.24303818 13.583092 3.7197194
0.24303818 13.622691 3.7101998
7.869328 13.792409 3.7114677
7.6267595 13.830713 3.7154019
7.8634872 13.895054 3.7189345
0.0030384064 13.996235 3.7186565
7.6099977 14.125303 3.7197495
0.45336175 14.206145 3.7147501
0.47099364 14.206146 3.7180467
1.3552983 14.206146 3.7172537
1.381734 14.206146 3.719173
1.6871337 14.206146 3.7120104
2.1809478 14.206146 3.7168584
3.18167 14.206146 3.71102
3.4644728 14.206146 3.7160015
5.1712103 14.206146 3.7152333
5.6578994 14.206146 3.7156019
6.0696244 14.206146 3.7115922
6.8189011 14.206146 3.7187371
0.0030384064 14.214844 3.711159
4.4180384 14.227783 3.7155156
7.6035519 14.238585 3.7119153
4.4180384 14.305513 3.7170711
7.5939455 14.407402 3.7199254
1.3894804 14.446143 3.7138915
1.9979349 14.446144 3.7110252
2.0125444 14.446144 3.7123735
2.621335 14.446144 3.7154942
3.1138327 14.446144 3.7129219
3.8999877 14.446144 3.7114055
4.0875306 14.446144 3.7177744
4.1872368 14.446143 3.7161987
5.1554489 14.446144 3.7139959
5.5285535 14.446144 3.7176156
5.6145473 14.446144 3.713872
5.8417282 14.446144 3.717077
5.9743428 14.446144 3.7193832
6.1081972 14.446145 3.7156682
6.4797935 14.446144 3.7114568
6.642652 14.446144 3.7153678
6.6718712 14.446144 3.7142472
6.689724 14.446144 3.7154765
6.8582211 14.446144 3.7165813
7.2431006 14.446144 3.7127728
7.2823386 14.446144 3.7173033
7.5101871 14.446144 3.7197464
2.2742403 0.0061454773 3.7292595
2.8157141 0.0061454773 3.7219036
4.122385 0.0061454773 3.7294345
4.3301787 0.0061454773 3.7249858
6.8323102 0.0061454773 3.7241151
0.24303818 0.036189459 3.7213552
7.0126514 0.035813041 3.7221253
6.7326508 0.062891662 3.7262013
2.1730375 0.10747436 3.7212734
6.7326508 0.13824688 3.724745
0.0030384064 0.17758636 3.7250276
5.7026501 0.18970352 3.7298689
7.0126514 0.19897634 3.7247069
0.66373658 0.24614525 3.7216678
0.81962633 0.24614525 3.7226186
1.1201143 0.24614525 3.7252526
2.1807761 0.24614525 3.7204437
2.3655128 0.24614523 3.7268014
2.7733467 0.24614525 3.7211127
2.8678539 0.24614525 3.7279768
3.3259311 0.24614525 3.7243018
3.9047761 0.24614525 3.721415
4.6325769 0.24614525 3.7208111
4.7888999 0.24614525 3.7297642
4.8449478 0.24614525 3.7267034
5.0350628 0.24614525 3.7215755
5.7026501 0.24492817 3.7217884
6.8989568 0.24614525 3.7274735
0.0030384064 0.44589844 3.7288394
3.5630379 0.63617152 3.7274475
7.0126514 0.6532799 3.7212396
7.0126514 0.7533204 3.7257938
7.0126514 0.77782148 3.7253573
3.443038 0.87125134 3.7282372
7.0126514 0.99790299 3.7293875
3.443038 1.0937295 3.7240424
7.2526512 1.1731426 3.7257736
3.443038 1.599014 3.7284904
3.5630379 1.6556878 3.7255487
0.0030384064 2.5014944 3.7292714
0.0030384064 2.5268457 3.7260962
0.0030384064 2.5705636 3.7247703
0.24303818 2.5959191 3.7224059
3.443038 2.6629686 3.7229352
3.443038 2.7298484 3.7296152
0.24303818 2.734242 3.7254777
3.443038 2.7305129 3.7261455
1.9926957 2.8361454 3.7254608
2.3567023 2.8361454 3.7243829
2.4122376 2.8361454 3.7221069
2.4511659 2.8361454 3.7272906
2.5074503 2.8361454 3.7271214
3.5630379 2.8414371 3.727798
2.6830378 2.9953554 3.7278099
0.0030384064 3.046741 3.7282143
0.94693446 3.0761452 3.7249236
1.5470935 3.0761452 3.729511
1.784748 3.0761452 3.7220976
7.2526512 3.210211 3.7221556
7.2526512 3.2389812 3.7260997
0.24303818 3.3185279 3.7298272
7.2526512 3.4087515 3.7296782
0.24303818 3.4157681 3.7206578
3.443038 3.4704387 3.7246113
7.2526512 3.4845805 3.7220097
3.445549 3.5561447 3.721055
7.0126519 3.5659013 3.7223737
0.24303818 3.5786023 3.7276826
0.24303818 3.6355894 3.7252069
7.2526512 3.6780076 3.7205462
7.2526512 3.7031059 3.7293658
7.0126514 3.9735093 3.7299557
7.2526512 4.0293188 3.7225549
0.0030384064 4.0695763 3.7286611
0.24303818 4.3500032 3.7276258
7.2526512 4.8172336 3.728158
7.2526512 4.821804 3.7222376
0.0030384064 4.9967856 3.7212791
7.0126514 5.1179395 3.7233696
0.24303818 5.1261396 3.7271855
7.0126514 5.1618991 3.7249558
0.24303818 5.1812711 3.7299516
3.5834548 5.236145 3.725086
3.608278 5.236145 3.7245119
4.2820582 5.236145 3.727416
4.5041194 5.236145 3.7205048
4.6005659 5.236145 3.7254362
4.6627712 5.236145 3.7207859
5.4079962 5.236145 3.7207041
6.3447399 5.236145 3.7239819
3.5630379 5.3446474 3.7232947
0.0030384064 5.3588228 3.7238474
3.7449036 5.356144 3.729527
3.8912041 5.356144 3.7299004
3.9868004 5.356144 3.7216916
4.0501027 5.356144 3.7210231
4.7354975 5.356144 3.720669
4.827713 5.356144 3.729784
6.478334 5.356144 3.7236702
6.6193929 5.356144 3.7204385
0.24303818 5.3861561 3.7239165
3.443038 5.4487915 3.7290192
7.0126514 5.457211 3.7227051
7.2526512 5.8399587 3.7202928
0.0030384064 5.8785625 3.7208738
7.2526507 6.1995287 3.7296691
7.0126514 6.2088757 3.7279601
2.5030384 6.3569102 3.7206073
0.24303818 6.3791065 3.7219501
2.5030384 6.373414 3.7290707
0.24303818 6.4139338 3.7293653
7.2526512 6.438796 3.7256916
7.0126514 6.4929519 3.7205262
7.2209167 6.5161438 3.7234457
0.24303818 6.8382359 3.7280424
0.23204134 6.8811455 3.7200422
3.5630379 6.9442282 3.7288241
3.5630379 6.9831672 3.7245135
3.443038 7.1626282 3.7219939
3.5630379 7.1720548 3.7253909
3.5630379 7.3649855 3.728755
3.443038 7.5409689 3.7249568
3.5630379 7.6077547 3.7228413
0.098392174 7.9111443 3.7257757
0.46391606 8.0611439 3.7242963
0.78781182 8.0611439 3.7201111
0.94514906 8.0611439 3.7229512
1.4776924 8.0611439 3.7242727
1.5945415 8.0611439 3.7294827
2.1001647 8.0611439 3.7293091
2.1399677 8.0611439 3.7200549
2.4481726 8.0611439 3.7223258
2.3880377 8.0924244 3.7211447
2.5030384 8.1214981 3.7244697
0.77518427 8.1761456 3.7267585
1.1204288 8.1761456 3.7284634
1.2560133 8.1761456 3.7212806
1.7608783 8.1761456 3.7267294
1.787439 8.1761456 3.7293677
1.8587269 8.1761456 3.7221782
1.8610121 8.1761456 3.726258
3.5630379 8.1889772 3.726757
0.64475763 8.4261456 3.7231927
0.79203862 8.4261456 3.7291989
0.86395121 8.4261456 3.727675
1.2784485 8.4261456 3.7269406
1.786046 8.4261456 3.7243261
2.0918167 8.4261456 3.7283008
2.3880377 8.4307899 3.728384
0.30599385 8.5461445 3.7280903
1.4722555 8.5461445 3.7260351
1.5430008 8.5461445 3.7242417
2.0928996 8.5461445 3.7242379
7.2526512 8.5796299 3.7263484
2.3880377 8.6029472 3.7220526
7.0126514 8.6763668 3.7275159
0.24303818 8.7006884 3.7297568
3.443038 8.7304621 3.7205353
3.5630379 8.7744865 3.7242599
3.443038 8.8261585 3.7215846
0.0030384064 8.9336376 3.7230926
7.0126514 8.9343481 3.7219288
0.0030384064 9.2930355 3.7230783
7.2526512 9.4141064 3.723351
7.1628714 9.4561443 3.7283621
7.7624955 9.4561443 3.727391
3.7599726 9.5161438 3.7298524
3.7864044 9.5161438 3.7292757
3.8429356 9.5161438 3.7229269
3.8920145 9.5161438 3.7229571
3.9715009 9.5161438 3.7210879
4.0762243 9.5161438 3.7261279
4.3276219 9.5161438 3.7214575
4.3525372 9.5161438 3.7261035
5.0817757 9.5161438 3.721642
5.1227455 9.5161438 3.7299118
5.8153071 9.5161438 3.7297785
6.0425982 9.5161438 3.7254646
6.3541532 9.5161438 3.7276163
6.5846915 9.5161438 3.7240074
6.5959997 9.5161438 3.7241478
6.6437688 9.5161438 3.728735
7.0126514 9.52946 3.7283776
3.6190856 9.6361446 3.7297742
3.780833 9.6361446 3.7252231
3.901648 9.6361446 3.7253082
3.9708743 9.6361446 3.7254782
4.0624852 9.6361446 3.7214174
4.1474543 9.6361446 3.7274532
4.2052832 9.6361446 3.7274776
4.2969732 9.6361446 3.7236664
4.8034277 9.6361446 3.7208681
4.869916 9.6361446 3.7214332
5.2155919 9.6361446 3.7222862
5.2686749 9.6361446 3.7274067
5.2744975 9.6361446 3.7268648
5.6743717 9.6361446 3.7214727
5.7418795 9.6361446 3.7202535
6.1938787 9.6361446 3.7276545
6.3109779 9.6361446 3.7209525
6.3352737 9.6361446 3.7209082
6.6523004 9.6361446 3.7263613
6.765461 9.6361446 3.7249229
6.7860031 9.6361446 3.7257824
6.9240766 9.6361446 3.7298644
0.37750876 9.6461449 3.7278025
0.89446878 9.6461449 3.7228937
1.2545527 9.6461449 3.7229266
1.7781324 9.6461449 3.7231059
7.165288 9.6961441 3.7266803
7.4308605 9.6961441 3.7235851
7.9959846 9.6961441 3.7255554
8.0119629 9.6961441 3.7202229
3.5630379 9.7118063 3.7275388
7.8566585 9.7903156 3.729208
2.6030378 9.8129005 3.7225659
3.5030384 9.823637 3.729423
8.0920963 9.8773232 3.7261925
1.2435775 9.8861446 3.7263556
2.1184428 9.8861446 3.7220309
2.1754475 9.8861446 3.7238111
3.5630379 9.9581938 3.7270164
3.443038 10.021623 3.7254276
8.0828495 10.039835 3.7251623
3.5630379 10.215032 3.7248423
7.8291574 10.273652 3.7272944
7.8284445 10.286177 3.7277799
0.0030384064 10.304489 3.7202635
8.0670652 10.317251 3.7246523
0.24303818 10.530859 3.7275915
0.0030384064 10.547371 3.7213836
0.0030384064 10.772261 3.7275355
0.24303818 10.791136 3.7261608
0.24303818 10.907751 3.7277284
0.0030384064 11.247329 3.7239978
0.0030384064 11.515333 3.7297413
0.24303818 11.58896 3.7282143
3.6030378 11.599038 3.7277296
7.9919891 11.636661 3.7292819
7.7512341 11.643118 3.729917
0.0030384064 11.757574 3.7225561
7.9830704 11.793411 3.7230291
3.6030378 11.830078 3.7233412
7.8814702 11.994735 3.7246726
7.8790913 12.03653 3.7261839
4.3108473 12.066145 3.727921
5.0732908 12.066145 3.7237358
7.6320524 12.066145 3.7277384
0.0030384064 12.084298 3.7278965
7.7233162 12.133757 3.7233305
3.6030378 12.155638 3.7262008
7.9623566 12.157446 3.7235062
4.7292476 12.186144 3.7284343
4.7372446 12.186144 3.7294135
5.4178085 12.186144 3.7294078
5.5902529 12.186144 3.7241869
5.6490998 12.186144 3.7202706
5.8313093 12.186144 3.725266
5.9927416 12.186144 3.7233768
6.5432873 12.186144 3.7268763
7.1833944 12.186144 3.7283044
0.0030384064 12.23946 3.7255025
3.6030378 12.242038 3.729624
3.6030378 12.307793 3.7262092
7.9537425 12.308842 3.7262669
7.7033377 12.484894 3.722702
7.6974592 12.588202 3.7204959
0.0030384064 12.633707 3.7242873
0.24303818 12.640368 3.721415
3.7230377 12.720272 3.7211645
7.686223 12.785685 3.7221074
0.24303818 12.838365 3.7230155
0.24303816 12.928393 3.7241056
7.9069061 13.131976 3.7292957
0.0030384064 13.15316 3.7282629
7.6642742 13.171421 3.7251
0.0030384064 13.206494 3.7292244
0.0030384064 13.211754 3.7200646
7.894897 13.343035 3.7262678
0.0030384064 13.39262 3.7284431
7.6511111 13.402765 3.7226152
0.24303818 13.585427 3.7269316
7.8793879 13.615605 3.7231247
7.6278534 13.811505 3.7287405
7.6253614 13.855287 3.7298577
7.6103201 14.119641 3.7268481
0.0030384064 14.12315 3.7236357
7.8495941 14.139225 3.7205057
0.43132108 14.206146 3.7215853
0.52590942 14.206146 3.7253282
0.63518751 14.206146 3.7240648
0.71326905 14.206146 3.7221546
1.760114 14.206146 3.7256501
1.9520787 14.206146 3.7241488
2.3993065 14.206146 3.7219491
2.7724032 14.206146 3.7278202
2.8691409 14.206146 3.7280972
3.5294416 14.206146 3.721684
3.6127384 14.206146 3.7229071
4.075984 14.206146 3.7220454
4.3911619 14.206146 3.7213073
5.2473235 14.206146 3.7237036
5.4172211 14.206146 3.7260616
5.5382733 14.206146 3.7251115
5.5672178 14.206146 3.7293351
5.6335583 14.206146 3.7225738
6.9208403 14.206146 3.7214017
7.1874399 14.206146 3.7233458
7.1931257 14.206146 3.7254369
7.4178162 14.206146 3.7206845
0.24303818 14.271237 3.7232795
0.0098018292 14.446145 3.7250512
0.12079962 14.446144 3.727005
0.21185856 14.446144 3.7223802
0.24303818 14.442725 3.7258306
0.69732809 14.446144 3.7203317
1.1016834 14.446145 3.7206867
2.0317993 14.446144 3.7289872
2.2891352 14.446144 3.7245436
2.994302 14.446144 3.7238026
5.4486694 14.446143 3.7228684
5.5319948 14.446144 3.7214086
6.0168123 14.446144 3.7223957
6.1848249 14.446144 3.7251563
6.8883276 14.446144 3.7207413
0.24303818 0.0089528933 3.7357965
0.49020511 0.0061454773 3.7399843
0.78579187 0.0061454773 3.7314234
2.2293177 0.0061454773 3.7398176
3.0108089 0.0061454773 3.7336931
3.1329365 0.0061454773 3.7312486
3.530859 0.0061454773 3.7331963
3.5914497 0.0061454773 3.7371049
4.0500712 0.0061454773 3.7373228
4.8963757 0.0061454773 3.7392006
5.1803875 0.0061454773 3.7308238
6.9763641 0.0061454773 3.7330709
0.54657525 0.24614525 3.7364357
0.68514121 0.24614525 3.7379775
2.5226488 0.24614526 3.738111
2.5999799 0.24614525 3.7313743
2.6103811 0.24614525 3.7368052
3.2164085 0.24614525 3.730757
4.9087329 0.24614525 3.7383718
5.0276766 0.24614525 3.7390063
6.7591324 0.24614525 3.7386575
6.7602787 0.24614525 3.7370088
0.0030384064 0.33083823 3.7314038
7.2526512 0.42138198 3.7311463
3.443038 0.62502599 3.7392988
3.443038 0.68349826 3.7356894
0.24303818 0.69504094 3.7372186
7.2526512 0.69273758 3.735239
3.5630379 0.9845134 3.7360146
0.0030384064 1.0779994 3.7348926
0.0030384064 1.1023712 3.7386651
3.443038 1.4684391 3.7313621
0.0030384064 1.5098449 3.7366552
0.24303818 1.6829534 3.7348461
0.0030384064 1.7754576 3.7387717
3.5630379 1.8103777 3.7391291
3.5630379 1.8960831 3.734756
3.5630379 1.9456296 3.737958
0.24303818 1.982566 3.7362545
3.5630379 2.0254288 3.7354102
3.5630379 2.300386 3.7391477
3.5630379 2.5234902 3.7347345
0.24303818 2.5506289 3.7378888
3.5630379 2.6081221 3.7305641
0.0030384064 2.7880743 3.7336879
1.99201 2.8361454 3.7338805
2.0283041 2.8361454 3.7364783
2.5536156 2.8361454 3.73647
2.6830378 2.8404377 3.7318168
0.24303816 3.0650725 3.7387962
0.0030384064 3.070487 3.7365603
0.24303818 3.0702288 3.7367101
0.97751486 3.0761452 3.7337909
3.443038 3.1513 3.733954
7.2526512 3.2923334 3.7357006
7.2526512 3.3091273 3.7305734
3.443038 3.3187079 3.7381606
3.443038 3.4390452 3.7360137
0.24303818 3.5392997 3.7304051
0.24303818 3.580657 3.7343135
7.0126514 3.5843635 3.7345312
0.24303819 3.5978267 3.7368574
7.2526512 3.7581906 3.7372773
7.0126514 3.8153429 3.7395077
0.0030384064 3.9659193 3.733438
7.2526512 3.9760756 3.7341528
0.24303818 4.0873022 3.7341318
7.0126514 4.183989 3.739749
0.0030384064 4.1907797 3.7331853
7.2526512 4.1939077 3.7323737
7.2526517 4.2259412 3.7394946
0.0030384064 4.4235315 3.7375827
0.24303818 4.4210873 3.7338314
0.24303818 4.4599113 3.7339451
0.0030384064 4.5332618 3.7336884
3.5630379 4.5497956 3.7390945
0.24303818 4.6041479 3.7377477
3.5630379 4.6089215 3.7373559
3.443038 4.6223474 3.7379429
7.2526512 4.6249146 3.7315364
0.0030384064 4.67908 3.7382569
0.24303818 4.7311211 3.7301044
7.0126514 4.9114513 3.7388275
3.5630379 4.9364882 3.7317212
7.2526512 4.9572186 3.7389843
7.0126514 5.0205598 3.7375834
0.0030384064 5.0735426 3.73261
7.2526512 5.0847311 3.7305026
0.24303818 5.1047816 3.7374406
7.0126514 5.1032596 3.7300603
3.443038 5.139277 3.7361207
0.0030384064 5.2101912 3.7374454
3.6495211 5.236145 3.7376709
3.9016047 5.236145 3.738131
3.9570069 5.236145 3.7398078
4.1090937 5.236145 3.7323656
4.1914635 5.236145 3.7313905
4.2176132 5.236145 3.7390122
5.5195026 5.236145 3.7388804
5.5339355 5.236145 3.7329288
5.6908774 5.236145 3.738564
5.8161163 5.236145 3.7393777
6.9527068 5.236145 3.7391834
3.5630379 5.3545127 3.7388401
4.8756056 5.356144 3.7399664
4.9539461 5.356144 3.7350979
4.9616041 5.356144 3.7392802
6.8995085 5.356144 3.731545
7.012651 5.4082069 3.7301559
7.0126514 5.4888182 3.7318559
3.5630379 5.6300116 3.7313011
3.5630379 5.7819314 3.7352476
3.5630379 5.962348 3.7389328
0.0030384064 6.3675022 3.7306633
2.5030384 6.3986821 3.7335529
7.0640984 6.5161443 3.7381663
7.1330318 6.5161438 3.7356586
3.5179172 6.8761444 3.737406
3.443038 7.024785 3.7385478
3.443038 7.0717759 3.7391918
3.5630379 7.3175054 3.7398579
3.443038 7.4155517 3.7398906
3.443038 7.4929242 3.7394824
3.5630379 7.8561783 3.732728
0.098529309 7.9111443 3.7342379
3.5630379 7.9351063 3.7373939
3.5630379 8.0215588 3.7376866
0.0030384064 8.0659676 3.7324769
0.36274338 8.0611439 3.736922
1.2578586 8.0611439 3.7339971
1.7360712 8.0611439 3.7308035
2.3880377 8.072176 3.737992
0.24303818 8.1507807 3.7303896
1.1514772 8.1761456 3.7374048
1.4068805 8.1761456 3.7318931
1.7060041 8.1761456 3.7326465
1.9139463 8.1761456 3.7363534
2.3880377 8.2099438 3.7363324
0.0030384064 8.256712 3.7319136
3.443038 8.2633209 3.737711
0.24303818 8.3083258 3.7389982
3.443038 8.3244534 3.7317009
0.59654403 8.4261456 3.7394297
0.74889851 8.4261456 3.7398493
0.77606571 8.4261456 3.7357316
0.91598415 8.4261456 3.7372355
1.1181098 8.4261456 3.7362599
2.2520154 8.4261456 3.7394273
0.24303818 8.4324265 3.7332754
3.5630379 8.5202169 3.7397261
0.46143204 8.5461445 3.7325654
0.62282419 8.5461445 3.7307022
1.641847 8.5461445 3.7377219
1.65051 8.5461445 3.7339375
1.6859257 8.5461445 3.7317152
2.1537762 8.5461445 3.7361605
2.2719889 8.5461445 3.7374403
7.012651 8.8123789 3.732976
3.5630379 8.9543457 3.7372813
7.2526512 8.9661217 3.7332876
3.443038 9.1061115 3.7358871
0.0030384064 9.1436634 3.7332428
3.443038 9.1540308 3.7330694
7.0126514 9.2571411 3.7354279
7.2526517 9.3228836 3.7369022
0.24303818 9.3400593 3.7342377
0.24303818 9.3862343 3.7300806
0.0030384064 9.413517 3.7302897
2.5030384 9.4394712 3.7328324
7.2526512 9.4439325 3.7396958
7.121017 9.4561443 3.7397909
7.2036972 9.4561443 3.7341776
7.732893 9.4561443 3.7359233
7.8904476 9.4561443 3.7315569
8.0544081 9.4561443 3.7367368
0.0030384064 9.4617281 3.7345085
0.0030384064 9.4860916 3.7324171
3.443038 9.5014734 3.7347262
4.0439901 9.5161438 3.7359929
4.2587533 9.5161438 3.7388325
4.304935 9.5161438 3.7343957
4.3362284 9.5161438 3.733861
4.5394583 9.5161438 3.7373483
4.5896873 9.5161438 3.7356701
4.6197586 9.5161438 3.7355919
4.6543016 9.5161438 3.7345304
5.1207113 9.5161438 3.737411
5.1428447 9.5161438 3.7349277
5.2504768 9.5161438 3.7323098
5.7161083 9.5161438 3.7346337
5.872437 9.5161438 3.7335308
6.3238964 9.5161438 3.7388473
6.5301642 9.5161438 3.7363706
6.5885282 9.5161438 3.7330081
6.614357 9.5161438 3.7345817
6.7021971 9.5161438 3.7341053
0.0030384064 9.6242714 3.7325764
3.7774971 9.6361446 3.7389369
3.885355 9.6361446 3.7345219
4.0346222 9.6361446 3.7341352
4.3886709 9.6361446 3.7326634
4.9515758 9.6361446 3.7346172
5.0927854 9.6361446 3.7318659
5.4112701 9.6361446 3.7378173
5.4261084 9.6361446 3.733829
5.5193896 9.6361446 3.7362936
5.8514819 9.6361446 3.7323563
6.5528493 9.6361446 3.7377086
6.7178388 9.6361446 3.7338915
6.984426 9.6361446 3.7336752
1.3243232 9.6461449 3.7371044
1.6253295 9.6461449 3.7327728
7.1674542 9.6961441 3.7365823
7.3457327 9.6961441 3.7373343
7.7312284 9.6961441 3.7362897
7.8639636 9.6961441 3.7355685
0.24303818 9.7131138 3.7310393
0.24303818 9.7245331 3.733737
2.6030378 9.8765545 3.7374308
3.5630381 9.8715458 3.7399724
0.54909754 9.8861446 3.7369645
0.71041405 9.8861446 3.7302399
0.89369315 9.8861446 3.737885
1.407964 9.8861446 3.7318435
2.4287834 9.8861446 3.7376423
3.4629364 9.8861446 3.7329335
0.0030384064 9.9094639 3.7367055
7.8496575 9.9133568 3.7354209
0.24303818 9.939333 3.7356191
0.24303816 9.9412365 3.7393036
7.8421254 10.045738 3.7349854
0.0030384064 10.067372 3.7329338
0.0030384064 10.113132 3.7385268
0.0030384064 10.175615 3.73526
0.0030384064 10.208883 3.732703
7.8332081 10.202457 3.7337255
3.443038 10.229652 3.7370553
7.830277 10.253974 3.735003
0.0030384064 10.296823 3.7324147
0.0030384064 10.340027 3.7350593
8.0032988 10.380491 3.7363749
0.24303818 10.517139 3.7397466
0.24303818 10.6166 3.7371597
0.24303818 10.897046 3.7390144
3.6030378 11.639458 3.7349513
3.6030378 11.872278 3.7332573
7.9773712 11.893564 3.7359972
3.6030378 11.905973 3.730202
7.9738355 11.955709 3.7379344
4.0078654 12.066145 3.7365074
4.2693062 12.066145 3.7347689
4.6835976 12.066145 3.7364938
5.1874552 12.066145 3.7311742
5.4272928 12.066145 3.7342772
5.860147 12.066145 3.7366548
7.1810274 12.066145 3.7370586
7.2378292 12.066145 3.7316649
7.2992463 12.066145 3.7330897
7.645762 12.066145 3.7385144
7.7217197 12.066145 3.7368779
7.8751583 12.105652 3.7355809
7.8506856 12.113942 3.7333851
3.7789116 12.186144 3.7334824
3.9405189 12.186144 3.733124
4.2809043 12.186144 3.736954
4.6873941 12.186144 3.7343347
4.7314463 12.186144 3.7372632
4.9371195 12.186144 3.732121
5.1875672 12.186144 3.735374
5.3369436 12.186144 3.7306347
6.1928759 12.186144 3.7340975
6.3828301 12.186144 3.7374644
6.5187445 12.186144 3.7309101
3.6030378 12.248862 3.7349834
3.7230377 12.579175 3.7344084
7.9358234 12.623763 3.7348285
3.6030378 12.698549 3.7322288
0.24303818 12.777162 3.7396693
0.24303818 12.940209 3.7344928
7.9157619 12.976341 3.734695
0.24303818 13.039548 3.7328682
7.6701689 13.067825 3.7368927
7.6333189 13.715438 3.732084
7.8708 13.766529 3.7316146
7.6154842 14.028877 3.7365847
0.24303818 14.072453 3.7352314
7.8493233 14.143979 3.7388883
0.9611479 14.206146 3.7368546
1.6035357 14.206146 3.7362499
1.8208647 14.206146 3.7343824
2.0757332 14.206146 3.7385981
2.4506977 14.206146 3.7355752
2.563514 14.206146 3.7391689
3.124939 14.206146 3.7397854
3.8769236 14.206146 3.7337141
6.8553114 14.206146 3.7364442
7.6041126 14.228722 3.7359385
5.1480389 14.244623 3.7377546
7.6021924 14.262479 3.7323332
0.0030384064 14.401794 3.7324479
7.5929918 14.424179 3.7368431
0.022015983 14.446144 3.7399909
0.087439656 14.446144 3.7377484
0.24452241 14.446144 3.7326329
0.88788247 14.446144 3.738533
1.1629328 14.446144 3.732306
1.2484555 14.446144 3.7375245
1.7322452 14.446144 3.7304924
2.3498704 14.446144 3.7329402
3.4611776 14.446144 3.7345321
5.9366322 14.446144 3.732672
6.2523203 14.446144 3.7381005
6.3167791 14.446144 3.737361
7.3471241 14.446144 3.7398913
0.5442183 0.0061454773 3.745754
0.84900212 0.0061454773 3.7421782
2.8071568 0.0061454773 3.7485197
2.9596429 0.0061454773 3.744663
3.4776349 0.0061454773 3.7495165
3.5550754 0.0061454773 3.7443118
3.8256936 0.0061454773 3.7475538
3.9511523 0.0061454773 3.744911
5.1128588 0.0061454773 3.7464533
5.6504564 0.0061454773 3.745168
6.8754778 0.0061454773 3.7426269
7.2526512 0.043862902 3.7443187
7.2526512 0.07974574 3.7426984
0.24303818 0.08916197 3.7443628
6.7326508 0.09448719 3.7406311
0.24303818 0.16079062 3.7414029
0.24303818 0.21985207 3.7440085
2.7045555 0.24614525 3.7426443
2.9260731 0.24614525 3.7479384
3.2882071 0.24614525 3.7426155
3.5630379 0.24851584 3.7474394
4.2289381 0.24614525 3.749404
4.2554917 0.24614525 3.7446599
4.535306 0.24614525 3.7439077
4.6255083 0.24614525 3.7407401
4.7641916 0.24614525 3.7435179
5.1127858 0.24614525 3.7474699
3.5630379 0.28373063 3.7458186
0.24303818 0.39487895 3.7495565
7.2526512 0.45380941 3.7452528
7.2526512 0.46251824 3.74828
3.5630379 0.64248961 3.7465529
7.0126514 0.64337844 3.7444057
3.443038 0.7433821 3.7497447
3.5630379 0.76498222 3.7488179
7.2526512 0.80213273 3.740562
7.0126514 0.81190526 3.7426934
0.0030384064 0.92221999 3.7475295
0.0030384064 0.96103865 3.7410064
3.5630379 0.96084994 3.7474363
7.2526512 1.0515124 3.746558
3.5630379 1.1089265 3.7418561
0.0030384064 1.1882594 3.7496128
3.5630379 1.2886468 3.7426825
3.443038 1.3402791 3.7468944
3.5630379 1.5303463 3.7445574
3.443038 1.5692892 3.7415929
3.443038 1.6077777 3.7433205
3.5630379 1.7576516 3.7457786
3.5630379 1.9011197 3.7458329
0.0030384064 2.1041815 3.7403336
3.443038 2.33143 3.7440908
0.0030384064 2.4204044 3.7413547
3.443038 2.5538509 3.7443087
0.0030384064 2.5805178 3.7485943
0.51760882 2.8361454 3.7406998
0.64362764 2.8361454 3.7489557
0.65143168 2.8361454 3.7450361
0.79016757 2.8361454 3.7499712
1.1175407 2.8361454 3.7410126
0.24303818 2.8480885 3.7407172
0.0030384064 3.0653548 3.7431786
0.60709274 3.0761452 3.7433891
0.97400028 3.0761452 3.7462797
1.2850612 3.0761452 3.7497244
1.9066604 3.0761452 3.7423398
2.2021534 3.0761452 3.7468963
2.3675501 3.0761452 3.7421079
3.5630379 3.1125724 3.7470326
0.0030384064 3.1428754 3.7470188
7.0861292 3.2061443 3.7484553
0.24303818 3.2330546 3.7439823
7.2526512 3.2771635 3.7456546
0.0030384064 3.5315266 3.7438469
7.012651 3.5626519 3.7460365
7.0126514 3.6752162 3.7418153
0.24303818 4.4026136 3.7435305
3.4858022 4.4561443 3.7478328
7.2526512 4.4691672 3.747869
0.0030384064 4.509738 3.7420065
0.0030384064 4.5570698 3.7437811
3.443038 4.5732284 3.7448483
0.24303818 4.8232055 3.7414923
3.443038 4.9550743 3.7454958
3.443038 4.9618258 3.7475474
0.24303818 5.0228381 3.7468767
0.24303818 5.0436296 3.7476425
3.443038 5.0539851 3.7418735
0.24303818 5.0920916 3.7400889
3.5630379 5.0904188 3.7458386
0.24303818 5.1179171 3.7404437
3.443038 5.1883254 3.7420206
3.9406216 5.236145 3.7462645
3.9543502 5.236145 3.7420523
4.3905196 5.236145 3.7436693
4.8778706 5.236145 3.7433746
5.5493312 5.236145 3.7422161
6.7980232 5.236145 3.7428005
0.24303818 5.2790051 3.7475932
3.7425027 5.356144 3.7424338
4.0415168 5.356144 3.7487831
4.2557926 5.356144 3.7424254
4.2971282 5.356144 3.7494028
4.5955052 5.356144 3.7489052
4.9388428 5.356144 3.7470293
5.0560465 5.356144 3.7461345
5.4976912 5.356144 3.7467909
5.5028801 5.356144 3.742604
5.663146 5.356144 3.7450237
5.8121414 5.356144 3.7483444
5.9565167 5.356144 3.7497141
6.3929243 5.356144 3.7462022
6.4264731 5.356144 3.7418919
3.5630379 5.3737359 3.7420115
7.0126514 5.4850569 3.7468333
7.2526512 5.5844398 3.7485685
7.2526512 5.5978699 3.7447855
0.24303818 5.70679 3.7424638
3.443038 5.7103324 3.7487149
0.24303818 5.7302227 3.7449253
3.5630379 5.8493509 3.7438347
7.0126514 5.9244914 3.7451096
7.2526512 5.9333839 3.7405694
2.3814743 5.9561443 3.7465234
7.0126514 6.023489 3.7435277
7.0126514 6.0587902 3.7496667
0.0030384064 6.0685554 3.7461276
0.0030384064 6.0829706 3.7410588
7.0126514 6.2168555 3.7452393
0.24303818 6.2434821 3.7485466
7.0126514 6.3251929 3.7472091
2.4626799 6.5561447 3.7459846
0.24303818 6.7697358 3.7448673
3.5630379 7.1713538 3.7441819
3.5630379 7.2688193 3.7417893
3.5630379 7.3425474 3.7459116
3.443038 7.7912598 3.7432539
0.53046119 8.0611439 3.7493393
0.87707233 8.0611439 3.7423058
0.99123126 8.0611439 3.7481084
1.0004761 8.0611439 3.7495155
1.2845829 8.0611439 3.7416134
1.3181095 8.0611439 3.7414401
1.5139298 8.0611439 3.7415862
1.6141338 8.0611439 3.7443137
1.7816334 8.0611439 3.741091
3.5630379 8.1067591 3.7451377
3.5630379 8.1299286 3.7411609
2.5030384 8.1674576 3.7487323
0.63195187 8.1761456 3.7413325
1.461659 8.1761456 3.7412567
1.6541958 8.1761456 3.747673
1.7835022 8.1761456 3.7438664
1.834162 8.1761456 3.7438743
3.443038 8.2186489 3.7472987
2.5030384 8.2360907 3.7412415
1.1655982 8.4261456 3.749063
1.7287232 8.4261456 3.749089
1.7669489 8.4261456 3.740963
3.443038 8.4737654 3.745544
0.0030384064 8.4890575 3.7431293
3.443038 8.5112162 3.7480626
2.5030384 8.536787 3.7402186
3.5630379 8.5365467 3.7449765
0.78348196 8.5461445 3.7409105
1.0345087 8.5461445 3.7492204
2.0301127 8.5461445 3.749913
2.5030384 8.5741291 3.7433734
7.012651 8.6331167 3.7425508
3.443038 8.8499842 3.7412715
0.0030384064 8.8546982 3.747366
0.24303818 8.8929424 3.7476168
0.0030384064 8.9777489 3.7418349
0.0030384064 9.0129499 3.7462006
7.0126514 9.0349798 3.7431917
7.0126514 9.0991859 3.7478158
0.24303818 9.1307907 3.7439098
3.443038 9.2278671 3.7415514
3.443038 9.3113537 3.7420568
2.3880377 9.3984947 3.7439604
2.4404187 9.3961449 3.7402697
0.24303818 9.4148693 3.7457175
7.3997316 9.4561443 3.745786
7.9637194 9.4561443 3.7480989
8.1148052 9.4782057 3.7485473
0.24303818 9.4899368 3.7497873
3.5630376 9.519659 3.7456193
3.6825917 9.5161438 3.7446585
4.0841489 9.5161438 3.7431521
4.3252926 9.5161438 3.747081
4.4577584 9.5161438 3.7464166
4.4724312 9.5161438 3.741075
4.5179262 9.5161438 3.7414393
4.780848 9.5161438 3.745698
4.8211088 9.5161438 3.7469006
4.8529544 9.5161438 3.7413955
4.8835063 9.5161438 3.7409239
5.0282755 9.5161438 3.7434261
5.0440006 9.5161438 3.7479751
5.20471 9.5161438 3.745132
5.5285225 9.5161438 3.7403483
5.8086081 9.5161438 3.7474895
6.627512 9.5161438 3.7433128
6.9905448 9.5161438 3.7434342
7.0052171 9.5161438 3.7461529
0.24303818 9.5749674 3.7488086
3.5630379 9.6047888 3.7406836
7.0126514 9.6134491 3.7463832
8.107213 9.6116447 3.7482152
3.443038 9.6266422 3.744879
7.0126514 9.6221027 3.748935
3.6919751 9.6361446 3.7441623
3.8975468 9.6361446 3.7402003
3.9588032 9.6361446 3.7473354
4.297565 9.6361446 3.7486553
4.3904018 9.6361446 3.7451522
4.4760995 9.6361446 3.7468948
4.493917 9.6361446 3.7429488
4.5315843 9.6361446 3.7432272
5.3616047 9.6361446 3.7416463
6.2573729 9.6361446 3.7423558
6.3655596 9.6361446 3.7455368
6.4172721 9.6361446 3.7448587
6.452476 9.6361446 3.74947
0.67987007 9.6461449 3.7447746
1.1750309 9.6461449 3.7476778
1.6410733 9.6461449 3.742703
1.7510756 9.6461449 3.7469759
1.87767 9.6461449 3.7427552
1.9254407 9.6461449 3.746604
7.1049614 9.6961441 3.744535
7.1439333 9.6961441 3.7492061
7.3219457 9.6961441 3.7474351
7.5042405 9.6961441 3.744761
8.0502901 9.6961441 3.7462487
0.24303818 9.7209244 3.7460372
8.0964432 9.800931 3.7454834
3.5630379 9.8518906 3.7449706
0.24303818 9.8761969 3.7495053
2.2774353 9.8861446 3.7489717
2.4172869 9.8861446 3.743299
2.5027533 9.8861446 3.7476604
3.5030384 9.8806162 3.7427492
8.0901976 9.9107027 3.7450666
8.081996 10.054846 3.7490396
3.5630379 10.078203 3.7419508
0.24303818 10.254675 3.7493896
0.0030384064 10.422041 3.7433021
7.7570972 11.540083 3.7490091
3.7230377 11.676486 3.7420516
3.7230377 11.697119 3.7406032
7.747941 11.700996 3.7472167
0.0030384064 11.886644 3.74547
3.8998172 12.066145 3.7401285
3.9078209 12.066145 3.7483647
3.9545822 12.066145 3.7430882
4.2981243 12.066145 3.7413111
4.4666867 12.066145 3.7446549
5.8635297 12.066145 3.7400258
5.9360008 12.066145 3.7422235
6.4153638 12.066145 3.7436671
6.7823014 12.066145 3.7430925
6.8617945 12.066145 3.7461808
7.4985099 12.066145 3.7406044
7.9643316 12.122744 3.7488947
3.7230377 12.167233 3.7457533
3.8535304 12.186144 3.7498019
4.0443878 12.186144 3.7438929
4.0577908 12.186144 3.748868
4.2673316 12.186144 3.7488499
4.4806118 12.186144 3.7452426
4.6057086 12.186144 3.749522
4.9430723 12.186144 3.7434568
4.9671936 12.186144 3.7471237
5.3430204 12.186144 3.7433679
5.4999428 12.186144 3.7461271
6.1720343 12.186144 3.7408185
6.3407893 12.186144 3.7489729
6.8817973 12.186144 3.7409682
7.3260722 12.186144 3.7474744
7.4111409 12.186144 3.7407331
3.6030378 12.259304 3.7467649
7.9484372 12.402084 3.7463076
7.7055936 12.445251 3.7445712
0.24303818 12.478199 3.7483928
7.9444723 12.471767 3.7480116
7.9439392 12.481132 3.7426038
7.9260321 12.795852 3.742641
3.6030378 12.873999 3.748116
0.0030384064 13.31434 3.7473454
7.6508188 13.407886 3.7424269
7.882452 13.561757 3.7488046
0.24303818 13.63418 3.7448711
7.8783464 13.633904 3.7488608
0.0030384064 13.666274 3.7424421
7.6261377 13.841654 3.7453084
7.8663154 13.84535 3.7440376
0.24303818 14.072742 3.7479987
1.7763411 14.206146 3.7430105
3.1335831 14.206145 3.7498353
3.3167171 14.206146 3.7492697
5.5357585 14.206146 3.7430787
5.5604372 14.206146 3.7418184
5.5994458 14.206146 3.7459593
5.9311996 14.206146 3.7437837
6.079968 14.206146 3.7457869
6.6403847 14.206146 3.7443342
6.850493 14.206146 3.7432346
6.8640327 14.206146 3.7441874
7.542377 14.206146 3.7465222
7.6018343 14.268776 3.7488813
7.5989046 14.320253 3.7450454
5.1480389 14.384671 3.7483544
7.5931249 14.421834 3.7452331
0.45413747 14.446144 3.7410917
0.47790018 14.446144 3.7410243
0.96604013 14.446144 3.7446527
1.5272932 14.446144 3.749634
1.7535337 14.446144 3.7402339
1.856421 14.446143 3.7466698
2.0219009 14.446144 3.749011
2.4812548 14.446144 3.7441959
2.5869372 14.446144 3.7465458
2.6516492 14.446144 3.7489491
2.75635 14.446144 3.7447181
2.9842081 14.446144 3.7451949
3.2582552 14.446144 3.7488682
3.8671634 14.446144 3.7403846
3.9776597 14.446144 3.7482004
5.1480389 14.44532 3.7460115
5.1752133 14.446144 3.740694
5.1858144 14.446144 3.747864
5.8974361 14.446144 3.7440343
6.0703206 14.446144 3.7456656
6.1147528 14.446144 3.7455344
6.2342081 14.446145 3.7404385
6.5716429 14.446144 3.7430921
6.8386216 14.446144 3.7442791
0.14780307 0.0061454773 3.7575586
2.2085574 0.0061454773 3.7511535
3.2472484 0.0061454773 3.7574644
3.2814753 0.0061454773 3.7544336
3.5480175 0.0061454773 3.7520957
3.6294754 0.0061454773 3.7514796
4.2560153 0.0061454773 3.7571368
4.663197 0.0061454773 3.7545116
6.8549461 0.0061454773 3.7511411
7.0834532 0.0061454773 3.7544856
6.7326508 0.040359732 3.7556765
2.1730375 0.086690001 3.7546329
7.2526512 0.18304195 3.7545977
7.0126514 0.23897249 3.7583001
0.38314536 0.24614525 3.7559402
0.55226886 0.24614525 3.7512085
0.56984013 0.24614523 3.7559829
0.71144843 0.24614525 3.7577696
0.95210558 0.24614525 3.7508123
2.5055015 0.24614525 3.7578793
2.7451463 0.24614525 3.7591708
2.8166618 0.24614525 3.7509375
3.1822677 0.24614525 3.7512147
3.2579484 0.24614525 3.7569628
3.6298776 0.24614525 3.7574339
4.6832314 0.24614525 3.7531984
5.100235 0.24614525 3.7543252
5.1654234 0.24614525 3.7531843
5.1989903 0.24614525 3.750783
5.6792383 0.24614525 3.7547991
6.8608141 0.24614525 3.7502298
7.0065117 0.24614525 3.7583725
3.5630379 0.31693542 3.7574506
0.24303818 0.40376467 3.7516925
0.0030384064 0.41456118 3.75667
7.0126514 0.43086711 3.7560272
3.443038 0.48214731 3.7538493
7.0126514 0.57502496 3.7511568
0.0030384064 0.59435141 3.757205
3.443038 0.75249326 3.7524149
3.443038 0.85729158 3.7538412
7.2526512 0.96624452 3.7599225
3.5630379 1.0386412 3.7563081
7.2526512 1.0852972 3.7568495
3.5630379 1.1376809 3.7546506
0.0030384064 1.2462144 3.7576146
3.443038 1.2877449 3.750834
3.443038 1.5362605 3.7506649
3.443038 1.6979535 3.7580729
3.5630379 1.8596013 3.7593985
3.5630379 1.9055704 3.7513998
3.443038 2.0811195 3.758245
3.443038 2.2370455 3.751231
0.0030384064 2.3165765 3.7506828
3.443038 2.4180369 3.7526712
0.24303818 2.4671726 3.7559533
0.0030384064 2.5786939 3.7548218
0.0030384064 2.5839298 3.758522
0.0030384064 2.6215634 3.7521076
0.33723807 2.8361454 3.7575047
0.96600461 2.8361454 3.7502031
1.2712587 2.8361454 3.7514553
1.8023758 2.8361454 3.7580781
2.5861139 2.8361454 3.7543097
0.24303818 2.916774 3.7520142
0.24303818 3.002152 3.7580824
0.3728264 3.0761452 3.7593291
0.56552905 3.0761452 3.7545187
1.0936441 3.0761452 3.7572458
1.2646576 3.0761452 3.7578747
1.6630518 3.0761452 3.7550888
1.709362 3.0761452 3.7520566
2.5533216 3.0761452 3.7515857
7.0853791 3.2061443 3.7528131
7.0126514 3.3676407 3.7568917
3.443038 3.411674 3.7570562
3.5630379 3.4616804 3.7560258
7.2526512 3.8114917 3.758275
0.0030384064 4.2195163 3.7533712
0.24303818 4.2418003 3.7533722
0.0030384064 4.2788634 3.7582977
0.0030384064 4.4478688 3.7546377
7.2526507 4.5706964 3.7555475
3.5630379 4.6689563 3.7545524
7.0126514 4.789259 3.7554069
3.5630379 4.8461852 3.758153
0.0030384064 4.8518753 3.7582264
3.5630379 4.9016027 3.7507119
3.5630379 4.9555969 3.7548952
3.443038 4.9864836 3.7532864
3.5630379 5.0079088 3.7579534
0.24303818 5.1339169 3.757741
3.5630379 5.161912 3.7533135
7.2526512 5.1854267 3.7534742
3.8314979 5.236145 3.7543144
4.2011423 5.236145 3.7564929
4.3688474 5.236145 3.7552962
5.3246937 5.236145 3.7561297
5.4183354 5.236145 3.753644
6.3049831 5.236145 3.7583318
6.716116 5.236145 3.7530267
6.8094659 5.236145 3.7570477
3.5743284 5.356144 3.753078
3.6576557 5.356144 3.7598443
5.6711192 5.356144 3.7531555
5.682436 5.356144 3.7533636
6.2612553 5.356144 3.7522116
6.8935728 5.356144 3.7578466
3.4430377 5.3764558 3.7518098
0.0030384064 5.4406576 3.7542205
7.2526512 5.4624658 3.7589877
3.443038 5.5271034 3.7555256
7.0126514 5.5910735 3.7527092
7.0126514 5.6346431 3.7540088
0.0030384064 5.8357654 3.756037
7.0126514 5.8791633 3.7562504
3.443038 5.893271 3.7591393
2.4057596 5.9561443 3.7592757
3.4994311 5.9761448 3.7545967
7.0126514 6.0707631 3.7590778
0.24303818 6.092124 3.7577338
7.0126514 6.2229528 3.7500217
0.24303818 6.273222 3.7509713
0.0030384064 6.327054 3.7537711
7.2526512 6.3265176 3.755311
2.2630377 6.3664055 3.7533793
7.0226803 6.5161438 3.7539959
7.1714864 6.5161438 3.7584858
0.24303818 6.6624193 3.7504425
0.0030384064 6.8154216 3.7534862
3.443038 7.0554609 3.750746
3.443038 7.0990257 3.7546167
3.4430382 7.1435289 3.752161
3.443038 7.6347427 3.7552063
0.0030384064 7.9553566 3.7549427
3.5630379 7.9843254 3.7547846
0.26201192 8.0611439 3.7502973
0.89061856 8.0611439 3.7518418
1.3129976 8.0611439 3.7525191
1.3351204 8.0611439 3.7507262
2.3206069 8.0611439 3.7586029
2.5030384 8.0754128 3.7556367
2.3880377 8.1159878 3.7552123
2.3880377 8.152729 3.7552719
0.48352984 8.1761456 3.7558217
1.0082759 8.1761456 3.7519484
1.4185185 8.1761456 3.7547383
2.1961949 8.1761456 3.7536857
0.54675937 8.4261456 3.7516747
1.0973623 8.4261456 3.7564483
1.2519014 8.4261456 3.7579827
1.6137214 8.4261456 3.7529531
1.8650066 8.4261456 3.7566266
1.9928758 8.4261456 3.7511463
2.3880377 8.4488258 3.7525592
2.5030384 8.4477472 3.7585359
3.443038 8.469245 3.7549486
0.24303818 8.5457344 3.7516971
0.60730815 8.5461445 3.7531419
0.79951465 8.5461445 3.7501261
1.4780892 8.5461445 3.7550082
0.0030384064 8.6552868 3.7585812
0.24303818 8.7393913 3.7556267
3.5630379 8.897069 3.7594857
0.24303818 9.0193548 3.7563825
0.24303818 9.0277414 3.7593546
3.443038 9.1180067 3.7575097
3.443038 9.2659769 3.7531211
7.2526512 9.2825613 3.7573903
7.182518 9.4561443 3.7575927
7.5067005 9.4561443 3.7595227
7.6375265 9.4561443 3.7525868
7.9652824 9.4561443 3.7562797
8.0061703 9.4561443 3.7544296
3.6033916 9.5161438 3.7597914
3.9563866 9.5161438 3.7564113
3.9680343 9.5161438 3.7588456
4.1753926 9.5161438 3.7538552
4.5064282 9.5161438 3.7527218
5.161211 9.5161438 3.7548044
5.3423719 9.5161438 3.7536774
5.3958673 9.5161438 3.7564445
5.4298673 9.5161438 3.7558026
5.4762068 9.5161438 3.7572858
5.8147306 9.5161438 3.7504344
6.0183344 9.5161438 3.7555873
6.1305423 9.5161438 3.7515986
6.2946796 9.5161438 3.7534938
6.5354257 9.5161438 3.7546234
6.6356282 9.5161438 3.7588303
6.8576546 9.5161438 3.7546918
3.5630379 9.5435123 3.7571959
7.0126514 9.5487642 3.7564595
3.5630379 9.5726557 3.7502708
0.0030384064 9.6375713 3.7511816
3.597002 9.6361446 3.7555411
4.4488325 9.6361446 3.7559421
4.5296583 9.6361446 3.7568319
4.5788631 9.6361446 3.7526839
4.6460667 9.6361446 3.759645
5.0770373 9.6361446 3.755825
5.2956319 9.6361446 3.7564998
5.3226042 9.6361446 3.7517028
5.3727703 9.6361446 3.7505274
5.5025063 9.6361446 3.7508397
5.685214 9.6361446 3.7500682
5.8950472 9.6361446 3.7573328
5.9445753 9.6361446 3.7557497
6.1036673 9.6361446 3.7546005
6.2194118 9.6361446 3.7594488
6.2769198 9.6361446 3.7548623
6.8731499 9.6361446 3.7542567
6.992806 9.6361446 3.7598681
0.57243162 9.6461449 3.7566283
1.5322409 9.6461449 3.7590389
2.5366344 9.6461449 3.7552493
7.9838367 9.6961441 3.758466
8.0905075 9.6961441 3.7562621
3.5630379 9.7177448 3.7532926
